ply
format ascii 1.0
element vertex 1192
property float x
property float y
property float z
property uchar red
property uchar green
property uchar blue
end_header
-7.312500 5.000000 -16.000000 191 200 197
-7.250000 5.000000 -16.000000 187 201 196
-6.865672 4.776119 -15.283582 190 199 196
-7.000000 5.000000 -16.000000 187 204 198
-6.937500 5.000000 -16.000000 187 204 198
-6.875000 5.000000 -16.000000 189 203 198
-6.812500 5.000000 -16.000000 189 203 198
-6.750000 5.000000 -16.000000 189 203 198
-6.687500 5.000000 -16.000000 189 203 198
-6.625000 5.000000 -16.000000 189 204 193
-6.562500 5.000000 -16.000000 190 205 194
-1.522816 1.668840 -5.340287 200 208 205
-1.490298 1.655886 -5.298836 200 208 205
-1.469599 1.655886 -5.298836 200 208 205
-1.448900 1.655886 -5.298836 200 208 205
-1.430052 1.658031 -5.305699 200 208 205
-1.411154 1.660182 -5.312581 201 209 206
-1.390402 1.660182 -5.312581 202 210 202
-1.369650 1.660182 -5.312581 152 160 152
-1.348898 1.660182 -5.312581 41 38 22
-2.868347 3.585434 -11.473390 62 59 43
-1.151079 1.534772 -4.911271 104 90 62
-1.127838 1.529271 -4.893668 106 93 58
-1.099526 1.516588 -4.853081 108 95 60
-1.076741 1.511216 -4.835891 117 97 64
-1.052879 1.504113 -4.813161 118 98 65
-1.019699 1.483198 -4.746234 121 102 62
-0.993103 1.471264 -4.708046 124 105 65
-0.966933 1.459521 -4.670467 125 106 66
-0.945455 1.454545 -4.654545 123 104 64
-0.926220 1.452894 -4.649262 116 96 63
-0.904977 1.447964 -4.633484 110 90 57
-0.887882 1.449604 -4.638731 97 78 40
-0.872727 1.454545 -4.654545 92 73 35
-0.855518 1.456200 -4.659841 101 81 48
-0.837315 1.456200 -4.659841 108 88 55
-0.818182 1.454545 -4.654545 104 84 49
-0.796380 1.447964 -4.633484 104 84 49
-0.773903 1.439820 -4.607424 95 74 46
-0.755906 1.439820 -4.607424 81 60 32
-0.744608 1.452894 -4.649262 77 64 31
-0.727273 1.454545 -4.654545 91 78 45
-0.709091 1.454545 -4.654545 105 86 46
-0.690909 1.454545 -4.654545 118 99 59
-0.671964 1.452894 -4.649262 104 75 45
-0.653061 1.451247 -4.643991 102 73 43
-0.634921 1.451247 -4.643991 82 61 33
-0.618182 1.454545 -4.654545 69 48 20
-0.602052 1.459521 -4.670467 61 48 24
-0.584475 1.461187 -4.675799 89 76 52
-0.566857 1.462857 -4.681143 138 104 78
-0.550459 1.467890 -4.697248 145 111 85
-0.533333 1.471264 -4.708046 143 121 91
-0.517321 1.478060 -4.729792 147 125 95
-0.499422 1.479769 -4.735260 147 126 96
-0.481481 1.481481 -4.740741 151 130 100
-0.462963 1.481481 -4.740741 153 132 102
-0.444444 1.481481 -4.740741 163 142 112
-0.425926 1.481481 -4.740741 164 143 113
-0.407407 1.481481 -4.740741 164 143 113
-0.389791 1.484919 -4.751740 166 141 112
-0.371661 1.486643 -4.757259 162 137 108
-0.353078 1.486643 -4.757259 160 132 95
-0.333720 1.483198 -4.746234 157 129 92
-0.314815 1.481481 -4.740741 153 128 90
-0.296640 1.483198 -4.746234 153 128 90
-0.278746 1.486643 -4.757259 150 125 85
-0.260768 1.490105 -4.768335 148 123 83
-0.242424 1.491841 -4.773893 141 121 88
-0.224037 1.493582 -4.779463 134 117 83
-0.204413 1.486643 -4.757259 130 114 82
-0.187135 1.497076 -4.790643 119 103 71
-0.183908 1.634738 -5.231162 129 110 72
-0.036488 1.459521 -4.670467 118 109 61
0.136364 1.212121 -3.878788 134 136 123
0.151515 1.212121 -3.878788 106 108 95
0.166667 1.212121 -3.878788 95 98 82
0.183908 1.226054 -3.923372 77 80 64
0.199616 1.228407 -3.930902 170 170 135
0.215385 1.230769 -3.938462 185 189 164
0.233010 1.242718 -3.976699 167 169 147
0.276923 1.230769 -3.938462 183 183 183
0.292589 1.231954 -3.942252 186 190 158
1.535604 3.962848 -12.681114 183 174 153
1.585139 3.962848 -12.681114 113 104 83
1.650000 4.000000 -12.800000 95 97 50
1.721519 4.050633 -12.962026 170 172 125
1.772152 4.050633 -12.962026 209 199 181
1.822785 4.050633 -12.962026 201 191 173
0.693727 1.180812 -3.778598 187 185 162
0.705882 1.176471 -3.764706 190 188 165
0.720588 1.176471 -3.764706 130 127 95
0.735294 1.176471 -3.764706 90 87 55
0.862579 1.353065 -4.329810 60 51 28
0.881356 1.355932 -4.338983 60 51 28
0.898305 1.355932 -4.338983 60 51 30
0.921109 1.364606 -4.366738 54 45 24
0.945220 1.374866 -4.399570 55 54 35
0.962406 1.374866 -4.399570 110 109 90
0.979592 1.374866 -4.399570 107 111 86
1.157895 1.403509 -4.491228 140 142 129
1.175439 1.403509 -4.491228 172 177 149
1.238968 1.065778 -3.410491 130 131 114
1.238880 1.054366 -3.373970 111 111 87
1.251029 1.053498 -3.371193 102 102 78
1.263158 1.052632 -3.368421 111 111 87
1.275267 1.051767 -3.365653 143 143 119
1.288414 1.051767 -3.365653 166 164 141
1.302632 1.052632 -3.368421 177 175 152
1.680742 1.318229 -4.218332 55 59 34
1.688525 1.311475 -4.196721 57 61 36
1.692777 1.302136 -4.166836 86 84 61
1.702128 1.296859 -4.149950 128 126 103
1.727088 1.303462 -4.171080 93 97 72
7.062500 5.000000 -16.000000 231 240 229
7.125000 5.000000 -16.000000 231 240 229
7.187500 5.000000 -16.000000 231 240 229
7.250000 5.000000 -16.000000 231 240 229
7.312500 5.000000 -16.000000 231 240 229
7.375000 5.000000 -16.000000 231 240 229
7.437500 5.000000 -16.000000 231 240 229
8.062500 5.000000 -16.000000 119 107 76
8.125000 5.000000 -16.000000 126 114 83
8.187500 5.000000 -16.000000 172 170 149
8.250000 5.000000 -16.000000 127 125 104
8.625000 5.000000 -16.000000 112 102 61
8.687500 5.000000 -16.000000 72 66 40
8.750000 5.000000 -16.000000 68 62 36
8.812500 5.000000 -16.000000 110 107 102
8.875000 5.000000 -16.000000 56 53 48
9.062500 5.000000 -16.000000 93 88 55
9.125000 5.000000 -16.000000 107 102 69
9.187500 5.000000 -16.000000 107 102 69
9.250000 5.000000 -16.000000 103 105 69
9.312500 5.000000 -16.000000 107 107 70
3.682927 1.951220 -6.243902 140 139 107
3.718654 1.957187 -6.262997 149 152 134
3.731707 1.951220 -6.243902 100 103 85
2.137034 1.110147 -3.552472 51 58 30
2.150911 1.110147 -3.552472 166 173 145
3.840000 1.969231 -6.301538 169 173 176
3.864615 1.969231 -6.301538 159 163 166
3.889231 1.969231 -6.301538 174 179 177
3.913846 1.969231 -6.301538 146 151 149
-7.485380 3.695906 -11.976608 175 189 184
-7.460411 3.706745 -12.011730 178 187 184
-7.413490 3.706745 -12.011730 178 187 184
-7.136364 3.590909 -11.636364 178 187 184
-6.801090 3.444142 -11.160763 179 188 185
-6.492146 3.308901 -10.722513 173 190 184
-6.175438 3.167920 -10.265664 179 188 185
-5.898795 3.045783 -9.869880 180 189 186
-5.642692 2.932715 -9.503480 180 189 186
-5.417040 2.834081 -9.183857 175 192 186
-5.194805 2.735931 -8.865801 175 192 186
-4.977036 2.638831 -8.551148 176 193 187
-4.783838 2.553535 -8.274748 176 193 187
-4.602740 2.473581 -8.015656 175 192 186
-4.458015 2.412214 -7.816794 176 193 187
-4.320298 2.353817 -7.627561 176 193 187
-4.290503 2.353817 -7.627561 177 194 188
-8.937500 4.937500 -16.000000 177 194 188
-8.875000 4.937500 -16.000000 178 195 189
-8.812500 4.937500 -16.000000 179 196 190
-8.750000 4.937500 -16.000000 182 191 188
-8.687500 4.937500 -16.000000 184 193 190
-8.625000 4.937500 -16.000000 180 197 191
-8.562500 4.937500 -16.000000 180 197 191
-8.500000 4.937500 -16.000000 180 197 191
-8.437500 4.937500 -16.000000 180 197 191
-8.375000 4.937500 -16.000000 180 197 191
-8.312500 4.937500 -16.000000 181 198 192
-8.250000 4.937500 -16.000000 181 198 192
-8.187500 4.937500 -16.000000 181 198 192
-8.125000 4.937500 -16.000000 185 197 193
-8.062500 4.937500 -16.000000 183 195 191
-8.000000 4.937500 -16.000000 183 197 192
-7.937500 4.937500 -16.000000 184 198 193
-7.550562 4.734082 -15.340824 190 198 195
-7.490637 4.734082 -15.340824 189 197 194
-7.750000 4.937500 -16.000000 186 198 194
-7.687500 4.937500 -16.000000 187 199 195
-7.625000 4.937500 -16.000000 190 198 195
-7.562500 4.937500 -16.000000 191 199 196
-7.500000 4.937500 -16.000000 191 199 196
-7.437500 4.937500 -16.000000 190 198 195
-7.375000 4.937500 -16.000000 192 200 197
-7.312500 4.937500 -16.000000 192 200 197
-7.250000 4.937500 -16.000000 191 200 197
-7.187500 4.937500 -16.000000 190 199 196
-7.125000 4.937500 -16.000000 188 202 197
-7.062500 4.937500 -16.000000 189 203 198
-7.000000 4.937500 -16.000000 193 201 198
-6.937500 4.937500 -16.000000 192 200 197
-6.875000 4.937500 -16.000000 193 201 198
-6.812500 4.937500 -16.000000 193 201 198
-6.750000 4.937500 -16.000000 190 204 199
-6.687500 4.937500 -16.000000 190 204 199
-6.625000 4.937500 -16.000000 189 203 198
-1.543677 1.647979 -5.340287 195 209 204
-1.509044 1.633075 -5.291990 198 207 204
-1.488372 1.633075 -5.291990 198 207 204
-1.463917 1.628866 -5.278350 199 208 205
-1.443299 1.628866 -5.278350 199 208 205
-1.426357 1.633075 -5.291990 196 208 204
-1.407503 1.635188 -5.298836 197 209 205
-1.390402 1.639429 -5.312581 199 208 205
-1.369650 1.639429 -5.312581 161 170 167
-1.350649 1.641558 -5.319480 40 40 12
-1.149701 1.513772 -4.905389 104 89 66
-1.122473 1.502973 -4.870392 101 87 57
-1.095632 1.492326 -4.835891 100 86 56
-1.071680 1.485311 -4.813161 108 87 57
-1.043073 1.471478 -4.768335 110 89 59
-1.018519 1.462963 -4.740741 112 92 59
-0.990826 1.449541 -4.697248 111 91 58
-0.968037 1.442922 -4.675799 105 84 54
-0.946530 1.437998 -4.659841 96 75 45
-0.926220 1.434733 -4.649262 95 74 44
-0.904977 1.429864 -4.633484 106 85 55
-0.889898 1.434733 -4.649262 116 95 65
-0.872727 1.436364 -4.654545 128 107 77
-0.854545 1.436364 -4.654545 129 109 74
-0.835414 1.434733 -4.649262 124 104 69
-0.814480 1.429864 -4.633484 104 84 49
-0.790123 1.418631 -4.597082 89 69 34
-0.771300 1.417040 -4.591928 70 55 32
-0.754209 1.418631 -4.597082 60 45 22
-0.738739 1.423423 -4.612613 64 51 27
-0.726447 1.434733 -4.649262 71 58 34
-0.709091 1.436364 -4.654545 81 60 34
-0.690909 1.436364 -4.654545 90 69 43
-0.671202 1.433107 -4.643991 74 55 31
-0.653061 1.433107 -4.643991 72 53 29
-0.634921 1.433107 -4.643991 70 51 27
-0.618182 1.436364 -4.654545 50 31 7
-0.600683 1.437998 -4.659841 33 29 4
-0.584475 1.442922 -4.675799 42 38 13
-0.567506 1.446224 -4.686499 93 72 35
-0.550459 1.449541 -4.697248 123 102 65
-0.532721 1.451205 -4.702641 149 127 93
-0.514943 1.452874 -4.708046 148 126 92
-0.498845 1.459584 -4.729792 144 127 93
-0.481481 1.462963 -4.740741 145 128 94
-0.463499 1.464658 -4.746234 146 128 99
-0.444959 1.464658 -4.746234 152 134 105
-0.426419 1.464658 -4.746234 154 137 103
-0.407880 1.464658 -4.746234 156 139 105
-0.389791 1.466357 -4.751740 161 135 104
-0.370800 1.464658 -4.746234 160 134 103
-0.351852 1.462963 -4.740741 157 131 96
-0.332180 1.457901 -4.724337 153 127 92
-0.313726 1.457901 -4.724337 152 126 95
-0.296296 1.462963 -4.740741 152 126 95
-0.277778 1.462963 -4.740741 148 122 87
-0.260465 1.469767 -4.762791 144 118 83
-0.243275 1.478363 -4.790643 135 118 84
-0.226415 1.490566 -4.830189 134 112 80
-0.207547 1.490566 -4.830189 126 113 80
0.121212 1.196970 -3.878788 112 112 88
0.136235 1.195837 -3.875118 163 160 151
0.151372 1.195837 -3.875118 117 114 105
0.166509 1.195837 -3.875118 100 103 83
0.181818 1.196970 -3.878788 101 104 84
0.198853 1.208413 -3.915870 153 157 132
0.214559 1.210728 -3.923372 139 142 122
0.230326 1.213052 -3.930902 144 145 141
0.243115 1.200380 -3.889838 153 154 150
0.259790 1.207259 -3.912130 157 159 150
0.276127 1.211889 -3.927133 196 198 189
1.697749 4.064309 -13.170418 117 111 69
1.726984 4.012699 -13.003175 186 180 138
1.777778 4.012699 -13.003175 200 195 162
1.811321 3.974843 -12.880503 191 186 153
0.678967 1.166052 -3.778598 188 187 159
0.693088 1.164977 -3.775115 175 176 145
0.705882 1.161765 -3.764706 188 189 158
0.720588 1.161765 -3.764706 112 105 72
0.735294 1.161765 -3.764706 69 62 29
0.862579 1.336152 -4.329810 63 55 27
0.881356 1.338983 -4.338983 84 76 48
0.901169 1.343252 -4.352816 121 114 81
0.926045 1.354770 -4.390139 131 124 91
0.947255 1.360603 -4.409042 63 55 25
0.970748 1.369447 -4.437703 136 128 98
0.988082 1.369447 -4.437703 125 125 90
1.150327 1.376906 -4.461874 140 142 129
1.170306 1.379913 -4.471616 163 165 143
1.236842 1.039474 -3.368421 107 100 79
1.250000 1.039474 -3.368421 93 86 65
1.260049 1.036916 -3.360131 101 99 76
1.274220 1.037767 -3.362890 117 115 92
1.287356 1.037767 -3.362890 137 129 101
1.300493 1.037767 -3.362890 142 134 106
1.204819 0.951807 -3.084337 173 170 138
1.655738 1.295082 -4.196721 75 72 40
1.680742 1.301751 -4.218332 56 54 33
1.697219 1.301751 -4.218332 63 61 40
1.704918 1.295082 -4.196721 117 117 93
1.721311 1.295082 -4.196721 80 80 56
1.737705 1.295082 -4.196721 79 82 64
7.062500 4.937500 -16.000000 230 241 227
7.125000 4.937500 -16.000000 230 241 227
7.187500 4.937500 -16.000000 230 241 227
7.250000 4.937500 -16.000000 230 241 227
7.312500 4.937500 -16.000000 230 241 227
7.375000 4.937500 -16.000000 230 241 227
7.437500 4.937500 -16.000000 230 241 227
8.125000 4.937500 -16.000000 129 121 91
6.238095 3.761905 -12.190476 172 170 149
6.285714 3.761905 -12.190476 139 136 120
6.390390 3.795796 -12.300301 77 69 55
8.375000 4.937500 -16.000000 65 57 43
8.812500 4.937500 -16.000000 140 133 127
8.875000 4.937500 -16.000000 69 62 56
8.937500 4.937500 -16.000000 66 57 32
9.062500 4.937500 -16.000000 93 93 56
9.125000 4.937500 -16.000000 103 103 66
9.187500 4.937500 -16.000000 103 103 66
9.250000 4.937500 -16.000000 110 110 73
9.312500 4.937500 -16.000000 107 107 70
3.731707 1.926829 -6.243902 100 102 89
2.138889 1.097222 -3.555556 59 64 32
2.158399 1.100087 -3.564839 186 191 159
3.840000 1.944615 -6.301538 164 173 170
3.864615 1.944615 -6.301538 160 169 166
3.889231 1.944615 -6.301538 175 184 181
2.198790 1.092481 -3.540190 130 139 136
-7.507331 3.659824 -12.011730 176 188 184
-7.482353 3.670588 -12.047059 179 187 184
-7.435294 3.670588 -12.047059 180 188 185
-7.136364 3.545455 -11.636364 179 187 184
-6.801090 3.400545 -11.160763 179 187 184
-6.492146 3.267016 -10.722513 178 187 184
-6.175438 3.127820 -10.265664 179 188 185
-5.898795 3.007229 -9.869880 176 190 185
-5.642692 2.895592 -9.503480 176 190 185
-5.417040 2.798206 -9.183857 178 192 187
-5.194805 2.701299 -8.865801 178 192 187
-4.977036 2.605428 -8.551148 178 192 187
-4.793522 2.526316 -8.291498 178 192 187
-4.751515 2.521212 -8.274748 178 192 187
-4.458015 2.381679 -7.816794 178 192 189
-4.312268 2.319703 -7.613383 178 192 189
-4.282528 2.319703 -7.613383 178 192 187
-8.937500 4.875000 -16.000000 179 193 188
-8.875000 4.875000 -16.000000 179 193 188
-8.812500 4.875000 -16.000000 180 194 189
-8.750000 4.875000 -16.000000 180 194 189
-8.687500 4.875000 -16.000000 181 195 190
-8.625000 4.875000 -16.000000 181 195 190
-8.562500 4.875000 -16.000000 182 196 191
-8.500000 4.875000 -16.000000 186 194 191
-8.437500 4.875000 -16.000000 186 194 191
-8.375000 4.875000 -16.000000 186 194 191
-8.312500 4.875000 -16.000000 187 195 192
-8.250000 4.875000 -16.000000 183 197 192
-8.187500 4.875000 -16.000000 183 197 192
-8.125000 4.875000 -16.000000 188 196 193
-8.062500 4.875000 -16.000000 187 195 192
-8.000000 4.875000 -16.000000 188 196 193
-7.937500 4.875000 -16.000000 188 196 193
-7.550562 4.674157 -15.340824 190 198 195
-7.490637 4.674157 -15.340824 190 198 195
-7.750000 4.875000 -16.000000 186 200 195
-7.687500 4.875000 -16.000000 185 199 194
-7.625000 4.875000 -16.000000 189 198 195
-7.562500 4.875000 -16.000000 190 199 196
-7.500000 4.875000 -16.000000 188 200 196
-7.437500 4.875000 -16.000000 188 200 196
-7.375000 4.875000 -16.000000 192 200 197
-7.312500 4.875000 -16.000000 193 201 198
-7.250000 4.875000 -16.000000 187 201 196
-7.187500 4.875000 -16.000000 187 201 196
-7.125000 4.875000 -16.000000 189 203 198
-7.062500 4.875000 -16.000000 189 203 198
-7.000000 4.875000 -16.000000 189 203 198
-6.937500 4.875000 -16.000000 192 202 195
-6.875000 4.875000 -16.000000 192 202 195
-6.812500 4.875000 -16.000000 186 204 198
-6.750000 4.875000 -16.000000 186 204 198
-6.687500 4.875000 -16.000000 186 204 198
-1.529716 1.612403 -5.291990 199 207 204
-1.505155 1.608247 -5.278350 199 207 204
-1.475032 1.597951 -5.244558 199 207 204
-1.450830 1.593870 -5.231162 200 208 205
-1.430396 1.593870 -5.231162 200 208 205
-1.419023 1.604113 -5.264781 199 210 198
-1.407503 1.614489 -5.298836 199 210 198
-1.388601 1.616580 -5.305699 200 208 202
-1.369650 1.618677 -5.312581 179 187 181
-1.352406 1.622887 -5.326398 44 44 16
-1.146953 1.491039 -4.893668 100 86 60
-1.115839 1.475177 -4.841608 100 81 57
-1.094340 1.471698 -4.830189 100 81 57
-1.062937 1.454545 -4.773893 102 82 49
-1.043073 1.452852 -4.768335 103 83 50
-1.019699 1.446118 -4.746234 98 80 49
-0.996540 1.439446 -4.724337 96 78 47
-0.971363 1.429553 -4.691867 100 83 49
-0.949772 1.424658 -4.675799 109 92 58
-0.930445 1.423033 -4.670467 123 106 72
-0.910125 1.419795 -4.659841 131 114 80
-0.890909 1.418182 -4.654545 134 117 83
-0.872727 1.418182 -4.654545 135 118 84
-0.854545 1.418182 -4.654545 133 115 84
-0.834467 1.414966 -4.643991 123 105 74
-0.814480 1.411765 -4.633484 96 75 45
-0.793687 1.406990 -4.617813 73 52 22
-0.772166 1.400673 -4.597082 44 33 15
-0.755056 1.402247 -4.602247 33 22 4
-0.743764 1.414966 -4.643991 34 24 8
-0.726447 1.416572 -4.649262 51 41 25
-0.708286 1.416572 -4.649262 64 46 26
-0.690125 1.416572 -4.649262 70 52 32
-0.671202 1.414966 -4.643991 74 55 31
-0.653061 1.414966 -4.643991 79 65 39
-0.634921 1.414966 -4.643991 106 85 55
-0.616780 1.414966 -4.643991 129 108 78
-0.600000 1.418182 -4.654545 126 105 79
-0.581818 1.418182 -4.654545 97 76 50
-0.566210 1.424658 -4.675799 90 64 29
-0.550459 1.431193 -4.697248 115 89 54
-0.532721 1.432836 -4.702641 153 131 101
-0.514351 1.432836 -4.702641 153 131 101
-0.496552 1.434483 -4.708046 147 125 95
-0.480925 1.442775 -4.735260 149 127 97
-0.463499 1.446118 -4.746234 149 124 97
-0.444959 1.446118 -4.746234 153 128 101
-0.426419 1.446118 -4.746234 159 129 102
-0.407880 1.446118 -4.746234 159 129 102
-0.389340 1.446118 -4.746234 157 131 96
-0.370370 1.444444 -4.740741 157 131 96
-0.350230 1.437788 -4.718894 156 130 95
-0.330654 1.432836 -4.702641 153 127 92
-0.312285 1.432836 -4.702641 152 126 93
-0.293915 1.432836 -4.702641 150 124 91
-0.277457 1.442775 -4.735260 148 119 87
-0.260163 1.449477 -4.757259 143 114 82
-0.245573 1.473436 -4.835891 136 114 82
-0.228029 1.482185 -4.864608 131 114 80
0.121212 1.181818 -3.878788 144 139 108
0.136235 1.180700 -3.875118 160 157 141
0.151372 1.180700 -3.875118 120 117 101
0.166509 1.180700 -3.875118 117 121 96
0.181646 1.180700 -3.875118 105 109 84
0.196783 1.180700 -3.875118 142 145 125
0.211520 1.178470 -3.867800 137 140 120
0.224930 1.169634 -3.838800 135 140 138
0.238806 1.164179 -3.820895 142 147 145
0.257576 1.181818 -3.878788 181 183 174
0.273764 1.186312 -3.893536 176 178 169
0.665434 1.153420 -3.785582 189 189 165
0.680222 1.153420 -3.785582 191 191 167
0.693088 1.150230 -3.775115 167 170 143
0.705882 1.147059 -3.764706 184 187 160
0.721251 1.148114 -3.768169 100 93 56
0.736648 1.149171 -3.771639 67 60 23
0.878364 1.343380 -4.409042 136 121 84
0.894624 1.341936 -4.404301 160 145 108
0.912809 1.343380 -4.409042 59 52 15
0.931035 1.344828 -4.413793 59 52 15
0.949299 1.346278 -4.418554 68 70 34
0.970748 1.352113 -4.437703 128 130 94
0.988082 1.352113 -4.437703 139 139 102
1.011996 1.360960 -4.466739 121 121 84
1.106476 1.369923 -4.496158 160 157 139
1.122807 1.368421 -4.491228 132 129 111
1.140351 1.368421 -4.491228 123 124 118
1.144095 1.352113 -4.437703 142 143 137
1.161430 1.352113 -4.437703 146 149 133
1.236842 1.026316 -3.368421 108 104 75
1.246924 1.023790 -3.360131 101 97 68
1.260049 1.023790 -3.360131 105 104 74
1.274220 1.024631 -3.362890 130 129 99
1.289474 1.026316 -3.368421 158 155 123
1.303704 1.027161 -3.371193 156 153 121
1.204819 0.939759 -3.084337 173 164 139
1.704918 1.278689 -4.196721 62 65 47
7.062500 4.875000 -16.000000 231 240 229
7.125000 4.875000 -16.000000 231 240 229
7.187500 4.875000 -16.000000 231 240 229
7.250000 4.875000 -16.000000 231 240 229
7.312500 4.875000 -16.000000 231 240 229
7.375000 4.875000 -16.000000 231 240 229
7.437500 4.875000 -16.000000 231 240 229
7.500000 4.875000 -16.000000 212 214 205
6.238095 3.714286 -12.190476 182 179 163
6.285714 3.714286 -12.190476 133 126 107
6.333333 3.714286 -12.190476 76 66 52
6.457831 3.759036 -12.337349 67 57 43
8.812500 4.875000 -16.000000 137 126 115
2.679245 1.471698 -4.830189 69 58 47
2.698113 1.471698 -4.830189 66 57 34
2.716981 1.471698 -4.830189 81 72 49
9.062500 4.875000 -16.000000 94 96 58
9.125000 4.875000 -16.000000 110 112 74
9.187500 4.875000 -16.000000 110 112 74
9.250000 4.875000 -16.000000 111 113 75
9.312500 4.875000 -16.000000 108 110 72
3.664671 1.868263 -6.131737 93 95 86
2.146342 1.087108 -3.567944 64 71 27
2.160279 1.087108 -3.567944 226 233 189
3.889231 1.920000 -6.301538 162 170 167
2.200692 1.079585 -3.543253 140 148 145
-7.507331 3.612903 -12.011730 176 189 189
-7.504425 3.634218 -12.082596 180 188 185
-7.435294 3.623529 -12.047059 179 187 184
-7.136364 3.500000 -11.636364 180 187 189
-6.801090 3.356948 -11.160763 179 186 188
-6.492146 3.225131 -10.722513 179 188 185
-6.190955 3.095477 -10.291457 179 188 185
-5.913043 2.975845 -9.893720 176 190 185
-5.682243 2.878505 -9.570093 176 190 185
-5.417040 2.762332 -9.183857 175 192 186
-5.183585 2.660907 -8.846652 179 191 187
-4.825911 2.493927 -8.291498 178 190 186
-4.783838 2.488889 -8.274748 178 190 186
-4.751515 2.488889 -8.274748 179 191 187
-4.571429 2.410959 -8.015656 175 193 187
-4.427481 2.351145 -7.816794 175 193 187
-9.000000 4.812500 -16.000000 181 190 187
-8.937500 4.812500 -16.000000 182 191 188
-8.875000 4.812500 -16.000000 177 194 188
-8.812500 4.812500 -16.000000 177 194 188
-8.750000 4.812500 -16.000000 178 195 189
-8.687500 4.812500 -16.000000 179 196 190
-8.625000 4.812500 -16.000000 185 194 191
-8.562500 4.812500 -16.000000 185 194 191
-8.500000 4.812500 -16.000000 185 194 191
-8.437500 4.812500 -16.000000 185 194 191
-8.375000 4.812500 -16.000000 179 197 191
-8.312500 4.812500 -16.000000 179 197 191
-8.250000 4.812500 -16.000000 180 198 192
-8.187500 4.812500 -16.000000 181 199 193
-8.125000 4.812500 -16.000000 187 196 193
-8.062500 4.812500 -16.000000 189 198 195
-8.000000 4.812500 -16.000000 189 198 195
-7.937500 4.812500 -16.000000 188 197 194
-7.550562 4.614232 -15.340824 184 201 195
-7.490637 4.614232 -15.340824 184 201 195
-7.750000 4.812500 -16.000000 184 202 196
-7.687500 4.812500 -16.000000 184 202 196
-7.625000 4.812500 -16.000000 185 202 196
-7.562500 4.812500 -16.000000 184 201 195
-7.500000 4.812500 -16.000000 188 200 196
-7.437500 4.812500 -16.000000 189 201 197
-7.375000 4.812500 -16.000000 190 199 196
-7.312500 4.812500 -16.000000 191 200 197
-7.250000 4.812500 -16.000000 191 200 197
-7.187500 4.812500 -16.000000 188 202 197
-7.125000 4.812500 -16.000000 187 201 196
-7.062500 4.812500 -16.000000 192 200 197
-7.000000 4.812500 -16.000000 193 201 198
-6.937500 4.812500 -16.000000 193 201 198
-6.875000 4.812500 -16.000000 193 201 198
-6.812500 4.812500 -16.000000 193 201 198
-6.750000 4.812500 -16.000000 193 201 198
-6.687500 4.812500 -16.000000 193 201 198
-1.525773 1.587629 -5.278350 199 209 202
-1.495519 1.577465 -5.244558 199 208 205
-1.471264 1.573436 -5.231162 199 208 205
-1.448980 1.571429 -5.224490 199 208 205
-1.428571 1.571429 -5.224490 199 208 205
-1.408163 1.571429 -5.224490 199 209 202
-1.403871 1.589677 -5.285161 199 209 202
-1.386805 1.593790 -5.298836 197 209 205
-1.369650 1.597925 -5.312581 196 208 204
-1.354167 1.604167 -5.333333 56 52 27
-1.115839 1.456265 -4.841608 103 81 58
-1.090482 1.447709 -4.813161 99 77 54
-1.064177 1.437573 -4.779463 98 77 47
-1.044289 1.435897 -4.773893 97 76 46
-1.025641 1.435897 -4.773893 98 75 48
-1.001159 1.427578 -4.746234 105 82 55
-0.981481 1.425926 -4.740741 118 96 66
-0.957422 1.417722 -4.713464 125 103 73
-0.933638 1.409611 -4.686499 130 108 78
-0.912201 1.404789 -4.670467 135 113 83
-0.891923 1.401593 -4.659841 138 116 84
-0.873720 1.401593 -4.659841 138 116 84
-0.854545 1.400000 -4.654545 134 112 80
-0.835414 1.398411 -4.649262 119 97 65
-0.815402 1.395244 -4.638731 84 62 39
-0.795480 1.392090 -4.628249 66 44 21
-0.777401 1.392090 -4.628249 46 35 15
-0.761905 1.396825 -4.643991 44 33 13
-0.745455 1.400000 -4.654545 47 37 23
-0.726447 1.398411 -4.649262 49 39 25
-0.708286 1.398411 -4.649262 51 42 21
-0.690125 1.398411 -4.649262 54 45 24
-0.672727 1.400000 -4.654545 64 50 24
-0.653061 1.396825 -4.643991 129 107 84
-0.634921 1.396825 -4.643991 137 120 86
-0.617480 1.398411 -4.649262 136 119 85
-0.600000 1.400000 -4.654545 131 106 77
-0.583144 1.403189 -4.665148 117 92 63
-0.566210 1.406393 -4.675799 105 83 53
-0.550459 1.412844 -4.697248 139 117 87
-0.532721 1.414466 -4.702641 153 135 104
-0.514351 1.414466 -4.702641 153 135 104
-0.496552 1.416092 -4.708046 150 132 101
-0.480925 1.424277 -4.735260 147 129 98
-0.462963 1.425926 -4.740741 153 128 99
-0.444959 1.427578 -4.746234 152 127 98
-0.426419 1.427578 -4.746234 149 124 95
-0.407880 1.427578 -4.746234 152 127 98
-0.388889 1.425926 -4.740741 154 129 91
-0.369515 1.422633 -4.729792 151 126 88
-0.349827 1.417722 -4.713464 153 125 88
-0.330654 1.414466 -4.702641 152 124 87
-0.312285 1.414466 -4.702641 147 123 89
-0.293915 1.414466 -4.702641 144 120 86
-0.277457 1.424277 -4.735260 142 118 84
-0.264463 1.454545 -4.835891 140 116 82
-0.245863 1.456265 -4.841608 133 116 82
-0.230769 1.480769 -4.923077 132 113 73
0.121212 1.166667 -3.878788 120 117 81
0.136235 1.165563 -3.875118 135 137 124
0.151372 1.165563 -3.875118 95 97 84
0.166352 1.164461 -3.871456 77 80 64
0.181303 1.163362 -3.867800 83 86 70
0.195857 1.160075 -3.856874 147 150 130
0.209934 1.154639 -3.838800 149 148 127
0.223881 1.149254 -3.820895 139 136 127
0.238806 1.149254 -3.820895 168 165 156
0.253968 1.150327 -3.824463 149 153 148
0.272727 1.166667 -3.878788 143 147 142
0.652456 1.141798 -3.796108 195 193 170
0.665434 1.138632 -3.785582 188 181 160
0.682113 1.141798 -3.796108 184 177 156
0.879310 1.327586 -4.413793 61 57 19
0.895587 1.326157 -4.409042 86 82 44
0.913793 1.327586 -4.413793 72 65 32
0.931035 1.327586 -4.413793 53 46 13
0.949299 1.329018 -4.418554 46 48 26
0.967603 1.330454 -4.423326 69 71 49
0.988082 1.334778 -4.437703 102 105 87
1.005417 1.334778 -4.437703 106 109 91
1.019438 1.330454 -4.423326 130 132 123
1.036717 1.330454 -4.423326 135 137 128
1.071350 1.352360 -4.496158 144 147 131
1.088913 1.352360 -4.496158 128 131 115
1.105263 1.350877 -4.491228 134 137 121
1.122807 1.350877 -4.491228 125 128 112
1.140351 1.350877 -4.491228 113 115 104
1.144095 1.334778 -4.437703 151 153 142
1.161430 1.334778 -4.437703 146 149 133
1.236842 1.013158 -3.368421 111 110 80
1.247947 1.011494 -3.362890 104 103 73
1.261084 1.011494 -3.362890 109 114 82
1.276316 1.013158 -3.368421 137 142 110
1.291598 1.014827 -3.373970 165 167 143
1.310174 1.019024 -3.387924 165 167 143
1.325601 1.020712 -3.393538 156 151 129
7.062500 4.812500 -16.000000 230 241 227
7.125000 4.812500 -16.000000 230 241 227
7.187500 4.812500 -16.000000 230 241 227
7.250000 4.812500 -16.000000 230 241 227
7.312500 4.812500 -16.000000 230 241 227
7.375000 4.812500 -16.000000 230 241 227
7.437500 4.812500 -16.000000 230 241 227
7.500000 4.812500 -16.000000 207 209 198
6.285714 3.666667 -12.190476 133 126 107
6.333333 3.666667 -12.190476 81 70 48
8.375000 4.812500 -16.000000 88 77 55
8.437500 4.812500 -16.000000 85 71 45
8.500000 4.812500 -16.000000 85 71 45
2.663518 1.454545 -4.835891 131 122 101
2.679245 1.452830 -4.830189 62 53 32
2.698113 1.452830 -4.830189 65 56 35
2.713781 1.451119 -4.824500 79 70 49
2.742317 1.456265 -4.841608 98 94 65
9.125000 4.812500 -16.000000 102 98 69
9.187500 4.812500 -16.000000 102 98 69
9.250000 4.812500 -16.000000 109 109 72
2.037607 1.052992 -3.500855 107 107 70
2.051282 1.052992 -3.500855 105 104 72
3.616766 1.844311 -6.131737 132 133 102
3.659193 1.841555 -6.122571 102 104 95
2.148213 1.074106 -3.571055 70 78 29
2.162162 1.074106 -3.571055 223 231 182
3.913846 1.895385 -6.301538 148 151 150
-7.507331 3.565982 -12.011730 172 190 184
-7.594030 3.629851 -12.226866 178 187 184
-7.546268 3.629851 -12.226866 178 187 184
-7.410029 3.587021 -12.082596 179 188 185
-7.090909 3.454545 -11.636364 179 188 185
-6.757493 3.313351 -11.160763 179 188 185
-6.450262 3.183246 -10.722513 179 188 185
-6.150754 3.055276 -10.291457 179 188 185
-5.917275 2.958637 -9.965937 175 192 186
-5.644860 2.841121 -9.570093 175 192 186
-5.194805 2.632035 -8.865801 177 189 185
-1.428400 0.728580 -2.454164 178 190 186
-1.398700 0.718252 -2.419374 181 189 186
-4.761134 2.461539 -8.291498 181 189 186
-9.000000 4.750000 -16.000000 183 191 188
-8.937500 4.750000 -16.000000 183 191 188
-8.875000 4.750000 -16.000000 183 191 188
-8.812500 4.750000 -16.000000 183 191 188
-8.750000 4.750000 -16.000000 181 195 190
-8.687500 4.750000 -16.000000 181 195 190
-8.625000 4.750000 -16.000000 186 194 191
-8.562500 4.750000 -16.000000 186 194 191
-8.500000 4.750000 -16.000000 183 195 191
-8.437500 4.750000 -16.000000 183 195 191
-8.375000 4.750000 -16.000000 185 194 191
-8.312500 4.750000 -16.000000 186 195 192
-8.250000 4.750000 -16.000000 187 195 192
-8.187500 4.750000 -16.000000 187 195 192
-8.125000 4.750000 -16.000000 188 196 193
-8.062500 4.750000 -16.000000 190 198 195
-8.000000 4.750000 -16.000000 190 198 195
-7.937500 4.750000 -16.000000 190 198 195
-7.550562 4.554307 -15.340824 187 199 195
-7.490637 4.554307 -15.340824 188 200 196
-7.750000 4.750000 -16.000000 186 200 195
-7.687500 4.750000 -16.000000 187 201 196
-7.625000 4.750000 -16.000000 190 199 196
-7.562500 4.750000 -16.000000 190 199 196
-7.500000 4.750000 -16.000000 190 199 196
-7.437500 4.750000 -16.000000 192 200 197
-7.375000 4.750000 -16.000000 192 200 197
-7.312500 4.750000 -16.000000 192 200 197
-7.250000 4.750000 -16.000000 192 200 197
-7.187500 4.750000 -16.000000 192 200 197
-7.125000 4.750000 -16.000000 192 200 197
-7.062500 4.750000 -16.000000 192 200 197
-7.000000 4.750000 -16.000000 191 200 197
-6.937500 4.750000 -16.000000 192 202 195
-6.875000 4.750000 -16.000000 192 202 195
-6.812500 4.750000 -16.000000 189 203 198
-6.750000 4.750000 -16.000000 189 203 198
-6.687500 4.750000 -16.000000 187 204 198
-6.625000 4.750000 -16.000000 187 204 198
-1.497436 1.558974 -5.251282 199 208 205
-1.471264 1.553001 -5.231162 199 208 205
-1.448980 1.551020 -5.224490 200 208 205
-1.428571 1.551020 -5.224490 200 208 205
-1.417202 1.560976 -5.258023 200 208 205
-1.403871 1.569032 -5.285161 200 208 205
-1.390402 1.577173 -5.312581 200 208 205
-1.375000 1.583333 -5.333333 205 213 210
-1.372032 1.604222 -5.403694 69 67 44
-1.129187 1.454545 -4.899521 99 77 54
-1.096927 1.437352 -4.841608 98 76 53
-1.075472 1.433962 -4.830189 93 75 46
-1.056604 1.433962 -4.830189 96 78 49
-1.037736 1.433962 -4.830189 101 83 52
-1.006993 1.417249 -4.773893 107 89 58
-0.987194 1.415600 -4.768335 116 99 61
-0.964079 1.409038 -4.746234 120 103 65
-0.942263 1.404157 -4.729792 123 106 70
-0.918485 1.396096 -4.702641 127 110 74
-0.900115 1.396096 -4.702641 130 114 73
-0.879725 1.392898 -4.691867 130 114 73
-0.858447 1.388128 -4.675799 124 106 75
-0.837315 1.383390 -4.659841 109 91 60
-0.818182 1.381818 -4.654545 80 58 35
-0.800000 1.381818 -4.654545 63 41 18
-0.785388 1.388128 -4.675799 54 43 23
-0.768000 1.389714 -4.681143 55 44 24
-0.748005 1.386545 -4.670467 59 45 26
-0.728100 1.383390 -4.659841 60 46 27
-0.709898 1.383390 -4.659841 66 49 24
-0.692483 1.384966 -4.665148 76 59 34
-0.674260 1.384966 -4.665148 99 77 54
-0.655290 1.383390 -4.659841 127 112 89
-0.637088 1.383390 -4.659841 131 116 93
-0.618885 1.383390 -4.659841 134 119 96
-0.601367 1.384966 -4.665148 140 118 88
-0.583808 1.386545 -4.670467 142 120 90
-0.568807 1.394495 -4.697248 150 124 93
-0.551091 1.396096 -4.702641 157 131 100
-0.534562 1.400922 -4.718894 162 136 105
-0.516724 1.402537 -4.724337 161 135 104
-0.499422 1.405780 -4.735260 155 135 102
-0.481481 1.407407 -4.740741 152 132 99
-0.462963 1.407407 -4.740741 157 127 100
-0.444444 1.407407 -4.740741 153 123 96
-0.425926 1.407407 -4.740741 152 123 93
-0.407407 1.407407 -4.740741 152 123 93
-0.388889 1.407407 -4.740741 152 124 89
-0.369515 1.404157 -4.729792 150 122 87
-0.351039 1.404157 -4.729792 146 121 83
-0.332564 1.404157 -4.729792 146 121 83
-0.314088 1.404157 -4.729792 145 119 84
-0.295954 1.405780 -4.735260 144 118 83
-0.278746 1.412311 -4.757259 138 119 81
-0.264775 1.437352 -4.841608 138 119 81
-0.247914 1.449345 -4.882002 135 116 76
-0.243655 1.543147 -5.197969 132 113 73
0.120983 1.149338 -3.871456 137 140 97
0.136106 1.149338 -3.871456 128 130 121
0.151229 1.149338 -3.871456 93 95 86
0.166195 1.148253 -3.867800 72 73 67
0.181132 1.147170 -3.864151 87 88 82
0.194939 1.139644 -3.838800 138 137 116
0.208955 1.134328 -3.820895 149 148 127
0.223672 1.133271 -3.817335 162 153 132
0.238806 1.134328 -3.820895 213 204 183
0.253968 1.135388 -3.824463 127 132 100
0.270423 1.141784 -3.846009 146 151 119
0.667285 1.126969 -3.796108 155 152 109
0.879310 1.310345 -4.413793 57 52 21
0.894624 1.307527 -4.404301 58 53 22
0.913793 1.310345 -4.413793 95 91 66
0.932039 1.311758 -4.418554 52 48 23
0.949299 1.311758 -4.418554 48 46 34
0.967603 1.313175 -4.423326 56 54 42
0.984881 1.313175 -4.423326 63 66 50
1.000000 1.310345 -4.413793 93 96 80
1.017241 1.310345 -4.413793 100 104 79
1.035599 1.311758 -4.418554 107 111 86
1.055135 1.314595 -4.428108 107 109 85
1.202703 1.027027 -3.459460 126 116 75
1.215190 1.026160 -3.456540 151 142 121
1.228692 1.026160 -3.456540 165 156 135
1.240101 1.024431 -3.450716 140 141 110
1.235880 1.009967 -3.401993 133 134 103
1.236842 1.000000 -3.368421 119 120 89
1.250000 1.000000 -3.368421 105 106 75
1.263158 1.000000 -3.368421 112 117 85
1.278418 1.001647 -3.373970 144 149 117
1.296940 1.005790 -3.387924 171 171 147
1.312345 1.007457 -3.393538 169 169 145
7.062500 4.750000 -16.000000 230 241 227
7.125000 4.750000 -16.000000 231 240 229
7.187500 4.750000 -16.000000 231 240 229
7.250000 4.750000 -16.000000 231 240 229
7.312500 4.750000 -16.000000 231 240 229
7.375000 4.750000 -16.000000 231 240 229
7.437500 4.750000 -16.000000 231 240 229
7.500000 4.750000 -16.000000 206 210 201
8.375000 4.750000 -16.000000 130 116 88
8.000000 4.503704 -15.170370 115 103 70
8.000000 4.470588 -15.058824 100 88 55
8.029305 4.454213 -15.003663 150 138 105
2.682409 1.435655 -4.835891 63 53 35
2.701299 1.435655 -4.835891 67 58 35
2.716981 1.433962 -4.830189 79 70 47
2.742317 1.437352 -4.841608 96 96 68
9.125000 4.750000 -16.000000 105 105 77
9.187500 4.750000 -16.000000 105 105 77
9.250000 4.750000 -16.000000 106 108 70
2.039350 1.040205 -3.503850 106 108 70
2.053037 1.040205 -3.503850 105 106 75
3.605970 1.814925 -6.113433 132 133 102
3.640718 1.820359 -6.131737 135 137 126
3.659193 1.817638 -6.122571 107 109 98
2.148213 1.060157 -3.571055 90 98 49
2.162162 1.060157 -3.571055 191 199 150
-1.483198 0.695249 -2.373117 174 188 183
-6.876033 3.305785 -11.283747 176 188 184
-6.543536 3.166227 -10.807388 176 188 184
-6.222222 3.030303 -10.343434 177 189 185
-6.181818 3.030303 -10.343434 177 189 185
-1.437987 0.718993 -2.454164 177 189 185
-1.408151 0.708801 -2.419374 174 192 186
-1.394582 0.706714 -2.412250 180 189 186
-1.385159 0.706714 -2.412250 181 190 187
-8.937500 4.687500 -16.000000 180 192 188
-8.875000 4.687500 -16.000000 182 191 188
-8.812500 4.687500 -16.000000 184 193 190
-8.750000 4.687500 -16.000000 179 196 190
-8.687500 4.687500 -16.000000 179 196 190
-8.625000 4.687500 -16.000000 185 194 191
-8.562500 4.687500 -16.000000 185 194 191
-8.500000 4.687500 -16.000000 185 194 191
-8.437500 4.687500 -16.000000 185 194 191
-8.375000 4.687500 -16.000000 183 195 191
-8.312500 4.687500 -16.000000 184 196 192
-8.250000 4.687500 -16.000000 186 195 192
-8.187500 4.687500 -16.000000 187 196 193
-8.125000 4.687500 -16.000000 187 196 193
-8.062500 4.687500 -16.000000 187 196 193
-8.000000 4.687500 -16.000000 183 197 192
-7.937500 4.687500 -16.000000 185 199 194
-7.875000 4.687500 -16.000000 187 199 195
-7.812500 4.687500 -16.000000 187 199 195
-7.750000 4.687500 -16.000000 183 201 195
-7.687500 4.687500 -16.000000 183 201 195
-7.625000 4.687500 -16.000000 183 201 195
-7.562500 4.687500 -16.000000 190 199 196
-7.500000 4.687500 -16.000000 190 199 196
-7.437500 4.687500 -16.000000 190 199 196
-7.375000 4.687500 -16.000000 191 200 197
-7.312500 4.687500 -16.000000 191 200 197
-7.250000 4.687500 -16.000000 191 200 197
-7.187500 4.687500 -16.000000 192 201 198
-7.125000 4.687500 -16.000000 192 201 198
-7.062500 4.687500 -16.000000 191 200 197
-7.000000 4.687500 -16.000000 189 203 198
-6.937500 4.687500 -16.000000 192 201 198
-6.875000 4.687500 -16.000000 192 201 198
-6.812500 4.687500 -16.000000 189 203 198
-6.750000 4.687500 -16.000000 190 204 199
-6.687500 4.687500 -16.000000 190 202 198
-6.625000 4.687500 -16.000000 190 202 198
-6.562500 4.687500 -16.000000 189 203 198
-1.555260 1.597870 -5.454061 193 211 205
-1.531915 1.595745 -5.446808 193 211 205
-1.504636 1.589404 -5.425166 199 208 205
-1.479524 1.585205 -5.410832 199 208 205
-1.431907 1.556420 -5.312581 199 208 205
-1.411154 1.556420 -5.312581 200 209 206
-1.395833 1.562500 -5.333333 200 209 206
-1.393140 1.583113 -5.403694 204 213 210
-1.377483 1.589404 -5.425166 84 87 67
-1.367156 1.602136 -5.468625 61 64 44
-1.110048 1.435407 -4.899521 89 74 51
-1.088305 1.431981 -4.887828 93 74 48
-1.065398 1.426873 -4.870392 98 79 53
-1.046373 1.426873 -4.870392 104 83 53
-1.023697 1.421801 -4.853081 108 87 57
-0.994138 1.406800 -4.801876 113 92 62
-0.968568 1.396973 -4.768335 120 99 69
-0.947735 1.393728 -4.757259 125 106 68
-0.925926 1.388889 -4.740741 125 106 68
-0.907407 1.388889 -4.740741 130 109 79
-0.888889 1.388889 -4.740741 127 106 76
-0.861398 1.374570 -4.691867 122 101 71
-0.841143 1.371429 -4.681143 108 87 57
-0.819113 1.365188 -4.659841 87 69 40
-0.803653 1.369863 -4.675799 71 53 24
-0.786286 1.371429 -4.681143 64 49 26
-0.769759 1.374570 -4.691867 68 53 30
-0.749714 1.371429 -4.681143 68 53 32
-0.728929 1.366743 -4.665148 74 59 38
-0.710706 1.366743 -4.665148 91 77 51
-0.692483 1.366743 -4.665148 105 91 65
-0.675029 1.368301 -4.670467 109 94 71
-0.659794 1.374570 -4.691867 109 104 73
-0.640000 1.371429 -4.681143 114 105 80
-0.621005 1.369863 -4.675799 119 110 85
-0.602740 1.369863 -4.675799 129 116 81
-0.584475 1.369863 -4.675799 136 123 88
-0.569460 1.377727 -4.702641 146 127 87
-0.552995 1.382488 -4.718894 153 134 94
-0.535797 1.385681 -4.729792 161 136 98
-0.517919 1.387283 -4.735260 159 134 96
-0.500000 1.388889 -4.740741 155 136 96
-0.481481 1.388889 -4.740741 153 134 94
-0.462963 1.388889 -4.740741 153 127 94
-0.444444 1.388889 -4.740741 151 125 92
-0.425926 1.388889 -4.740741 148 123 85
-0.407407 1.388889 -4.740741 148 123 85
-0.388889 1.388889 -4.740741 147 121 86
-0.369942 1.387283 -4.735260 146 120 85
-0.351445 1.387283 -4.735260 143 118 80
-0.332948 1.387283 -4.735260 141 116 78
-0.315180 1.390498 -4.746234 142 117 79
-0.297329 1.393728 -4.757259 143 118 80
-0.282353 1.411765 -4.818823 139 120 80
-0.265089 1.420118 -4.847337 138 119 79
-0.250000 1.442308 -4.923077 132 112 77
-0.243655 1.522843 -5.197969 130 110 75
0.120983 1.134215 -3.871456 109 101 73
0.135977 1.133144 -3.867800 143 142 123
0.151086 1.133144 -3.867800 92 91 72
0.166038 1.132075 -3.864151 66 67 63
0.180282 1.126761 -3.846009 78 79 75
0.193849 1.118360 -3.817335 108 111 95
0.208566 1.117318 -3.813780 142 145 129
0.223464 1.117318 -3.813780 170 166 128
0.238583 1.118360 -3.817335 181 177 139
0.253968 1.120448 -3.824463 109 110 50
0.270423 1.126761 -3.846009 200 201 141
0.876477 1.288937 -4.399570 91 83 44
0.892704 1.287554 -4.394850 102 94 55
0.912809 1.291712 -4.409042 115 115 78
0.931035 1.293103 -4.413793 95 95 58
0.949299 1.294498 -4.418554 52 49 33
0.966559 1.294498 -4.418554 77 74 58
0.982759 1.293103 -4.413793 85 86 80
0.998924 1.291712 -4.409042 115 116 110
1.015054 1.290323 -4.404301 151 156 124
1.033369 1.291712 -4.409042 204 209 177
1.055135 1.297297 -4.428108 141 139 114
1.202703 1.013514 -3.459460 142 126 85
1.215190 1.012658 -3.456540 164 160 133
1.228692 1.012658 -3.456540 178 174 147
1.236975 1.008403 -3.442017 142 145 116
1.235880 0.996678 -3.401993 135 138 109
1.237860 0.987654 -3.371193 120 119 91
1.250000 0.986842 -3.368421 111 110 82
1.264198 0.987654 -3.371193 110 114 89
1.278418 0.988468 -3.373970 141 145 120
1.296940 0.992556 -3.387924 177 175 154
7.062500 4.687500 -16.000000 231 240 229
7.125000 4.687500 -16.000000 231 240 229
7.187500 4.687500 -16.000000 231 240 229
7.250000 4.687500 -16.000000 231 240 229
7.312500 4.687500 -16.000000 231 240 229
7.375000 4.687500 -16.000000 231 240 229
7.437500 4.687500 -16.000000 231 240 229
7.500000 4.687500 -16.000000 197 206 195
7.970479 4.428044 -15.114391 89 82 47
7.884058 4.347826 -14.840580 109 102 67
7.856631 4.301075 -14.681004 156 145 98
8.087913 4.395605 -15.003663 151 140 93
2.730769 1.442308 -4.923077 53 43 27
2.720571 1.426873 -4.870392 64 56 26
2.723404 1.418440 -4.841608 75 67 37
2.758621 1.426873 -4.870392 91 92 61
9.125000 4.687500 -16.000000 100 101 70
9.187500 4.687500 -16.000000 100 101 70
9.250000 4.687500 -16.000000 105 103 64
9.312500 4.687500 -16.000000 107 105 66
3.571429 1.785714 -6.095238 97 97 69
3.605970 1.791045 -6.113433 124 124 96
3.629851 1.791045 -6.113433 130 132 121
3.653731 1.791045 -6.113433 106 108 97
2.142609 1.043478 -3.561739 87 93 54
2.156522 1.043478 -3.561739 179 185 146
3.804878 1.829268 -6.243902 195 198 182
3.829268 1.829268 -6.243902 185 188 172
3.853658 1.829268 -6.243902 163 165 156
-1.508544 0.697702 -2.413671 178 187 184
-1.710827 0.796234 -2.754539 178 187 184
-1.615434 0.761415 -2.634084 179 188 185
-1.590822 0.754621 -2.610580 172 190 184
-1.562697 0.746062 -2.580970 173 191 185
-1.535203 0.737695 -2.552025 173 190 184
-1.514851 0.732673 -2.534653 174 191 185
-1.426025 0.703506 -2.433749 173 191 185
-1.405660 0.698113 -2.415094 174 192 186
-1.392122 0.696061 -2.407995 180 189 186
-1.381904 0.695652 -2.406580 178 192 187
-8.937500 4.625000 -16.000000 183 191 188
-8.875000 4.625000 -16.000000 180 194 189
-8.812500 4.625000 -16.000000 179 193 188
-8.750000 4.625000 -16.000000 182 196 191
-8.687500 4.625000 -16.000000 181 195 190
-8.625000 4.625000 -16.000000 182 196 191
-8.562500 4.625000 -16.000000 182 196 191
-8.500000 4.625000 -16.000000 183 195 191
-8.437500 4.625000 -16.000000 183 195 191
-8.375000 4.625000 -16.000000 183 197 189
-8.312500 4.625000 -16.000000 182 196 188
-8.250000 4.625000 -16.000000 187 195 192
-8.187500 4.625000 -16.000000 189 197 194
-8.125000 4.625000 -16.000000 188 196 193
-8.062500 4.625000 -16.000000 189 197 194
-8.000000 4.625000 -16.000000 188 196 193
-7.937500 4.625000 -16.000000 188 196 193
-7.875000 4.625000 -16.000000 188 196 193
-7.812500 4.625000 -16.000000 187 199 195
-7.750000 4.625000 -16.000000 187 199 195
-7.687500 4.625000 -16.000000 187 199 195
-7.625000 4.625000 -16.000000 188 200 196
-7.562500 4.625000 -16.000000 191 199 196
-7.500000 4.625000 -16.000000 192 200 197
-7.437500 4.625000 -16.000000 192 200 197
-7.375000 4.625000 -16.000000 192 200 197
-7.312500 4.625000 -16.000000 192 200 197
-7.250000 4.625000 -16.000000 192 200 197
-7.187500 4.625000 -16.000000 191 200 197
-7.125000 4.625000 -16.000000 191 200 197
-7.062500 4.625000 -16.000000 188 202 197
-7.000000 4.625000 -16.000000 189 203 198
-6.937500 4.625000 -16.000000 192 201 198
-6.875000 4.625000 -16.000000 192 201 198
-6.812500 4.625000 -16.000000 187 204 198
-6.750000 4.625000 -16.000000 187 204 198
-6.687500 4.625000 -16.000000 192 201 198
-6.625000 4.625000 -16.000000 192 201 198
-6.562500 4.625000 -16.000000 190 204 199
-6.500000 4.625000 -16.000000 191 205 200
-1.533955 1.576565 -5.454061 201 209 206
-1.510638 1.574468 -5.446808 201 209 203
-1.495327 1.580774 -5.468625 201 209 203
-1.468085 1.574468 -5.446808 201 209 201
-1.437252 1.564069 -5.410832 201 209 201
-1.416116 1.564069 -5.410832 200 208 205
-1.396825 1.566138 -5.417989 203 211 208
-1.377483 1.568212 -5.425166 122 125 107
-1.361702 1.574468 -5.446808 69 72 54
-1.115385 1.423077 -4.923077 85 74 54
-1.094838 1.421369 -4.917167 95 74 46
-1.074341 1.419664 -4.911271 98 77 49
-1.052632 1.416268 -4.899521 102 81 51
-1.027348 1.407848 -4.870392 105 84 54
-1.004739 1.402844 -4.853081 111 86 55
-0.975381 1.388042 -4.801876 118 93 62
-0.949942 1.378347 -4.768335 121 100 61
-0.931315 1.378347 -4.768335 126 105 66
-0.909513 1.373550 -4.751740 129 110 70
-0.888889 1.370370 -4.740741 125 106 66
-0.869364 1.368786 -4.735260 119 100 62
-0.844037 1.357798 -4.697248 111 92 54
-0.823799 1.354691 -4.686499 104 84 51
-0.804571 1.353143 -4.681143 97 77 44
-0.787185 1.354691 -4.686499 85 72 37
-0.771527 1.359357 -4.702641 82 69 34
-0.751432 1.356243 -4.691867 83 70 44
-0.729761 1.350057 -4.670467 97 84 58
-0.710706 1.348519 -4.665148 105 100 71
-0.693273 1.350057 -4.670467 104 99 70
-0.678121 1.356243 -4.691867 100 95 64
-0.660550 1.357798 -4.697248 109 104 73
-0.640732 1.354691 -4.686499 115 106 85
-0.621005 1.351598 -4.675799 116 107 86
-0.602740 1.351598 -4.675799 117 108 74
-0.587830 1.359357 -4.702641 124 115 81
-0.570771 1.362486 -4.713464 136 120 86
-0.554273 1.367206 -4.729792 141 125 91
-0.536416 1.368786 -4.735260 152 131 92
-0.517919 1.368786 -4.735260 155 134 95
-0.499422 1.368786 -4.735260 154 135 95
-0.481481 1.370370 -4.740741 153 134 94
-0.462963 1.370370 -4.740741 152 127 98
-0.443418 1.367206 -4.729792 150 125 96
-0.424452 1.365629 -4.724337 149 120 90
-0.405998 1.365629 -4.724337 146 117 87
-0.388439 1.368786 -4.735260 144 117 89
-0.369942 1.368786 -4.735260 143 116 88
-0.351445 1.368786 -4.735260 141 115 80
-0.333720 1.371958 -4.746234 140 114 79
-0.318875 1.388042 -4.801876 143 115 76
-0.301176 1.392941 -4.818823 143 115 76
-0.284024 1.401183 -4.847337 140 116 80
-0.267303 1.412888 -4.887828 137 113 77
-0.254590 1.449204 -5.013464 131 111 78
0.120869 1.118036 -3.867800 129 125 87
0.135977 1.118036 -3.867800 117 118 87
0.151086 1.118036 -3.867800 109 110 79
0.164332 1.105509 -3.824463 61 61 35
0.178439 1.100372 -3.806691 81 81 55
0.192593 1.096296 -3.792593 78 82 59
0.207216 1.095282 -3.789084 136 140 117
0.221607 1.093259 -3.782087 182 177 148
0.238361 1.102421 -3.813780 158 153 124
0.254443 1.107577 -3.831618 147 140 107
0.892704 1.270386 -4.394850 93 97 63
0.912809 1.274489 -4.409042 48 56 23
0.932039 1.277238 -4.418554 60 68 35
0.950324 1.278618 -4.423326 85 88 59
0.967603 1.278618 -4.423326 96 99 70
0.982759 1.275862 -4.413793 111 114 98
0.997849 1.273118 -4.404301 123 126 110
1.015054 1.273118 -4.404301 188 187 157
1.033369 1.274489 -4.409042 229 228 198
1.202703 1.000000 -3.459460 132 116 75
1.216216 1.000000 -3.459460 161 154 119
1.228692 0.999156 -3.456540 176 169 134
1.238015 0.995795 -3.444912 142 145 116
1.240000 0.986667 -3.413333 128 132 107
1.240924 0.976898 -3.379538 113 116 100
1.251029 0.974486 -3.371193 111 114 98
1.265239 0.975288 -3.373970 107 110 92
1.279472 0.976092 -3.376752 137 140 122
7.062500 4.625000 -16.000000 231 240 229
7.125000 4.625000 -16.000000 230 241 227
7.187500 4.625000 -16.000000 230 241 227
7.250000 4.625000 -16.000000 230 241 227
7.312500 4.625000 -16.000000 230 241 227
7.375000 4.625000 -16.000000 230 241 227
7.437500 4.625000 -16.000000 230 241 227
7.500000 4.625000 -16.000000 185 203 197
7.799283 4.243728 -14.681004 80 72 44
7.664336 4.139860 -14.321678 101 95 53
7.829787 4.198582 -14.524822 144 138 96
2.734055 1.424789 -4.929001 56 47 22
2.743405 1.419664 -4.911271 65 56 35
2.739596 1.407848 -4.870392 73 64 43
2.758621 1.407848 -4.870392 89 88 58
9.125000 4.625000 -16.000000 97 96 66
9.187500 4.625000 -16.000000 97 96 66
9.250000 4.625000 -16.000000 116 109 74
9.312500 4.625000 -16.000000 111 104 69
3.576751 1.764531 -6.104322 104 103 75
3.605970 1.767164 -6.113433 131 130 102
3.629851 1.767164 -6.113433 130 132 121
3.653731 1.767164 -6.113433 91 94 74
3.722054 1.788520 -6.187311 72 76 51
3.768997 1.799392 -6.224924 174 178 153
3.799087 1.802131 -6.234399 176 188 169
3.829268 1.804878 -6.243902 173 185 166
3.853658 1.804878 -6.243902 145 151 139
3.878049 1.804878 -6.243902 150 156 144
-1.721587 0.785474 -2.754539 179 187 184
-1.710827 0.785474 -2.754539 179 187 184
-1.624679 0.750643 -2.632391 179 187 184
-1.601020 0.744423 -2.610580 179 187 184
-1.572779 0.735980 -2.580970 179 188 185
-1.546135 0.728180 -2.553616 179 188 185
-1.523810 0.722325 -2.533086 173 190 184
-1.502762 0.717004 -2.514426 173 190 184
-1.492025 0.716564 -2.512883 177 191 186
-1.451923 0.701923 -2.461539 178 192 187
