ply
format ascii 1.0
element vertex 1211
property float x
property float y
property float z
property uchar red
property uchar green
property uchar blue
end_header
0.977661 -0.641262 -2.691196 120 99 69
0.975990 -0.633355 -2.658014 119 98 68
0.992815 -0.637492 -2.675375 118 96 66
1.015202 -0.645076 -2.707204 117 95 65
1.025777 -0.645076 -2.707204 118 97 67
1.028871 -0.640420 -2.687664 120 99 69
1.031922 -0.635831 -2.668404 122 102 69
1.040989 -0.635003 -2.664932 123 103 70
1.049351 -0.633766 -2.659740 121 105 71
1.059740 -0.633766 -2.659740 118 102 68
1.078534 -0.638743 -2.680628 111 98 65
2.864865 -1.648649 -6.918919 29 32 14
2.891892 -1.648649 -6.918919 21 24 6
2.918919 -1.648649 -6.918919 14 23 12
2.945946 -1.648649 -6.918919 13 24 10
2.972973 -1.648649 -6.918919 23 25 14
3.015280 -1.657046 -6.954160 40 42 31
6.848709 -3.601476 -15.114391 30 33 15
6.907749 -3.601476 -15.114391 31 33 11
4.675324 -2.112554 -8.865801 29 31 22
2.855643 -1.280840 -5.375328 28 30 21
2.869110 -1.277487 -5.361257 25 27 18
2.890052 -1.277487 -5.361257 25 27 18
3.533123 -1.539432 -6.460568 25 27 18
3.530516 -1.527387 -6.410016 28 30 21
3.544462 -1.522621 -6.390016 26 29 13
3.569423 -1.522621 -6.390016 26 29 13
-3.618529 -2.702997 -11.160763 14 30 31
-3.555556 -2.688347 -11.100271 20 31 47
-1.522914 -1.165687 -4.813161 15 26 42
-1.502347 -1.164319 -4.807512 15 26 29
-1.483568 -1.164319 -4.807512 16 27 30
-1.466510 -1.165687 -4.813161 21 32 35
-0.828439 -0.766615 -3.165379 14 28 37
-0.818605 -0.768992 -3.175194 14 28 37
-0.812500 -0.775000 -3.200000 22 38 46
-0.801879 -0.776821 -3.207518 35 51 59
-0.787500 -0.775000 -3.200000 42 56 65
-0.773188 -0.773188 -3.192518 47 61 70
-0.755418 -0.767802 -3.170279 52 75 83
-0.741313 -0.766023 -3.162934 39 62 70
-0.830986 -0.873239 -3.605634 26 49 68
-0.819064 -0.875552 -3.615181 18 41 60
-0.807080 -0.877876 -3.624779 16 38 62
-0.836601 -0.926237 -3.824463 12 34 58
-0.757819 -0.886506 -3.660411 15 30 43
-0.744186 -0.887299 -3.663685 21 41 50
-0.729875 -0.887299 -3.663685 14 34 43
-0.715564 -0.887299 -3.663685 17 25 29
-0.701252 -0.887299 -3.663685 22 30 34
-0.703297 -0.908425 -3.750916 31 47 55
-0.689908 -0.910092 -3.757798 18 34 42
-0.674610 -0.909258 -3.754354 14 27 29
-0.659945 -0.909258 -3.754354 10 23 25
-0.645280 -0.909258 -3.754354 18 26 23
-0.631772 -0.910927 -3.761249 22 30 27
-0.585714 -0.885714 -3.657143 18 26 23
-0.570919 -0.884924 -3.653880 23 31 28
-0.542373 -0.884924 -3.653880 14 21 23
-0.527159 -0.883348 -3.647373 14 22 19
-0.512912 -0.883348 -3.647373 16 24 21
-0.499109 -0.884135 -3.650624 24 32 29
0.054054 -0.558559 -2.306306 12 21 18
0.063063 -0.558559 -2.306306 13 22 19
0.072072 -0.558559 -2.306306 14 23 20
0.081081 -0.558559 -2.306306 15 24 21
0.090090 -0.558559 -2.306306 15 24 21
0.224664 -0.605617 -2.500611 185 194 191
0.234289 -0.605247 -2.499085 181 190 187
0.244051 -0.605247 -2.499085 175 184 181
0.252888 -0.603040 -2.489969 162 171 168
0.262295 -0.602307 -2.486946 143 154 140
0.271845 -0.601942 -2.485437 122 133 119
0.280702 -0.600121 -2.477919 185 197 176
0.289855 -0.599034 -2.473430 207 216 213
0.298615 -0.597231 -2.465984 207 216 213
0.340199 -0.659136 -2.721595 204 218 213
0.351297 -0.660013 -2.725216 203 217 212
0.386318 -0.665325 -2.747149 206 215 212
0.397049 -0.665325 -2.747149 206 215 212
0.406689 -0.663545 -2.739799 203 217 212
0.413245 -0.656954 -2.712583 206 215 212
0.396040 -0.613861 -2.534653 206 215 212
0.405188 -0.612724 -2.529957 205 214 211
0.415071 -0.612724 -2.529957 206 215 212
0.454425 -0.655218 -2.705416 206 215 212
0.469725 -0.606728 -2.505199 197 206 203
0.476886 -0.603406 -2.491484 188 197 194
0.486027 -0.602673 -2.488457 186 195 192
0.495747 -0.602673 -2.488457 204 213 210
0.505775 -0.603040 -2.489969 205 214 211
0.558559 -0.558559 -2.306306 202 211 208
0.567568 -0.558559 -2.306306 199 208 205
0.576577 -0.558559 -2.306306 192 201 198
0.585586 -0.558559 -2.306306 200 209 206
0.594595 -0.558559 -2.306306 199 208 205
0.603604 -0.558559 -2.306306 199 208 205
0.612613 -0.558559 -2.306306 176 185 182
0.621622 -0.558559 -2.306306 185 194 191
0.630631 -0.558559 -2.306306 200 209 206
0.810916 -0.644574 -2.661469 159 162 161
0.812339 -0.637532 -2.632391 130 132 112
0.818938 -0.634677 -2.620601 131 133 113
0.828645 -0.634271 -2.618926 132 131 114
0.839411 -0.634677 -2.620601 133 132 115
0.847479 -0.633057 -2.613912 137 136 119
0.812085 -0.599396 -2.474925 142 143 126
0.821752 -0.599396 -2.474925 141 142 125
0.875318 -0.631043 -2.605598 100 91 70
0.884933 -0.630642 -2.603941 76 67 46
0.848704 -0.597951 -2.468957 113 97 79
0.904127 -0.629841 -2.600635 120 104 86
0.916614 -0.631445 -2.607256 125 103 80
0.988173 -0.651774 -2.691196 117 104 71
1.008626 -0.658261 -2.717983 117 96 66
1.019920 -0.658699 -2.719788 112 91 61
1.028496 -0.657389 -2.714381 110 92 61
1.029547 -0.651346 -2.689429 111 93 62
1.031922 -0.646254 -2.668404 114 96 65
1.042345 -0.646254 -2.668404 117 99 68
1.052769 -0.646254 -2.668404 119 102 66
1.063885 -0.646675 -2.670143 117 100 64
1.075016 -0.647097 -2.671885 109 91 60
2.868966 -1.710345 -7.062069 100 86 60
2.852292 -1.684211 -6.954160 82 68 42
2.869712 -1.678511 -6.930626 27 29 9
2.891892 -1.675676 -6.918919 21 23 3
2.918919 -1.675676 -6.918919 13 24 10
2.945946 -1.675676 -6.918919 13 24 10
2.983051 -1.681356 -6.942373 16 27 13
3.051546 -1.704467 -7.037801 18 29 15
6.831460 -3.715356 -15.340824 19 21 10
6.789668 -3.660517 -15.114391 21 23 12
6.848709 -3.660517 -15.114391 24 26 15
4.518828 -2.075314 -8.569037 31 33 22
4.533333 -2.066667 -8.533334 30 32 21
2.865360 -1.296732 -5.354249 24 26 15
2.882507 -1.295039 -5.347259 24 26 15
2.907190 -1.296732 -5.354249 25 27 16
3.561208 -1.577106 -6.511924 25 27 16
3.552756 -1.562205 -6.450394 27 29 18
3.550000 -1.550000 -6.400000 27 29 18
3.575000 -1.550000 -6.400000 27 29 18
-3.668508 -2.784530 -11.314918 19 36 41
-3.574932 -2.746594 -11.160763 16 36 49
-3.512195 -2.731707 -11.100271 27 47 60
-1.509434 -1.188679 -4.830189 29 49 62
-1.490566 -1.188679 -4.830189 34 54 67
-0.809486 -0.796838 -3.237945 24 34 44
-0.789350 -0.789350 -3.207518 23 36 52
-0.775000 -0.787500 -3.200000 23 36 52
-0.760717 -0.785659 -3.192518 32 46 55
-0.831889 -0.873484 -3.549393 46 60 69
-0.828797 -0.884987 -3.596137 53 68 74
-0.817621 -0.888106 -3.608811 47 62 68
-0.807080 -0.892035 -3.624779 34 54 67
-0.793623 -0.892825 -3.627989 24 44 57
-0.782222 -0.896000 -3.640889 14 29 44
-0.770053 -0.898396 -3.650624 18 33 39
-0.757143 -0.900000 -3.657143 19 34 40
-0.744852 -0.902417 -3.666965 24 43 50
-0.730528 -0.902417 -3.666965 12 31 38
-0.716204 -0.902417 -3.666965 17 25 22
-0.717949 -0.923077 -3.750916 19 27 24
-0.703297 -0.923077 -3.750916 26 37 42
-0.689276 -0.923923 -3.754354 18 29 34
-0.674610 -0.923923 -3.754354 13 25 21
-0.660550 -0.924771 -3.757798 12 24 20
-0.646465 -0.925620 -3.761249 13 29 26
-0.527159 -0.897596 -3.647373 12 21 18
-0.512912 -0.897596 -3.647373 14 23 20
-0.498221 -0.896797 -3.644128 19 28 25
0.063063 -0.567568 -2.306306 13 21 18
0.072072 -0.567568 -2.306306 14 22 19
0.081081 -0.567568 -2.306306 16 24 21
0.165138 -0.577982 -2.348624 186 194 191
0.174013 -0.576989 -2.344591 186 194 191
0.225352 -0.617269 -2.508267 186 194 191
0.234432 -0.615385 -2.500611 186 194 191
0.244051 -0.615009 -2.499085 181 189 186
0.252888 -0.612766 -2.489969 170 178 175
0.262295 -0.612022 -2.486946 153 162 151
0.271845 -0.611650 -2.485437 132 141 130
0.281553 -0.611650 -2.485437 158 168 148
0.291262 -0.611650 -2.485437 208 216 213
0.329568 -0.669767 -2.721595 207 215 212
0.340652 -0.670659 -2.725216 208 216 213
0.351297 -0.670659 -2.725216 207 215 212
0.365591 -0.677419 -2.752688 207 215 212
0.376344 -0.677419 -2.752688 207 215 212
0.387097 -0.677419 -2.752688 207 215 212
0.396776 -0.624923 -2.539368 206 214 211
0.404938 -0.622222 -2.528395 207 215 212
0.414815 -0.622222 -2.528395 206 214 211
0.424691 -0.622222 -2.528395 206 214 211
0.477176 -0.613512 -2.493001 194 202 199
0.486027 -0.612394 -2.488457 193 201 198
0.495747 -0.612394 -2.488457 202 210 207
0.549550 -0.567568 -2.306306 192 200 197
0.558559 -0.567568 -2.306306 193 201 198
0.567568 -0.567568 -2.306306 204 212 209
0.576577 -0.567568 -2.306306 200 208 205
0.585586 -0.567568 -2.306306 191 199 196
0.594595 -0.567568 -2.306306 197 205 202
0.603604 -0.567568 -2.306306 200 208 205
0.612613 -0.567568 -2.306306 200 208 205
0.621622 -0.567568 -2.306306 186 194 191
0.800520 -0.654971 -2.661469 175 176 170
0.805681 -0.650742 -2.644287 128 129 123
0.814433 -0.649485 -2.639175 130 133 117
0.819462 -0.645326 -2.622279 129 132 116
0.828115 -0.644089 -2.617252 131 128 112
0.838339 -0.644089 -2.617252 132 129 113
0.805825 -0.611650 -2.485437 136 133 117
0.816029 -0.612022 -2.486946 140 139 122
0.865140 -0.641221 -2.605598 114 113 96
0.875318 -0.641221 -2.605598 94 87 66
0.884933 -0.640814 -2.603941 126 119 98
0.891704 -0.638379 -2.594047 131 117 91
0.906429 -0.641630 -2.607256 119 105 79
0.987392 -0.668879 -2.717983 118 105 72
0.984938 -0.660118 -2.682384 113 100 67
1.008626 -0.668879 -2.717983 109 91 60
1.019920 -0.669323 -2.719788 102 84 53
1.028496 -0.667992 -2.714381 104 83 55
0.953192 -0.612766 -2.489969 108 87 59
0.962918 -0.612766 -2.489969 111 90 62
0.973236 -0.613139 -2.491484 116 95 67
1.053455 -0.657106 -2.670143 115 97 66
1.064579 -0.657534 -2.671885 113 95 64
1.078534 -0.659686 -2.680628 104 86 55
2.868966 -1.737931 -7.062069 93 78 55
2.852292 -1.711375 -6.954160 59 44 21
2.879457 -1.711375 -6.954160 23 25 16
2.891892 -1.702703 -6.918919 20 22 13
2.918919 -1.702703 -6.918919 15 24 13
2.960951 -1.711375 -6.954160 15 24 13
3.024055 -1.731959 -7.037801 18 27 16
3.072664 -1.743945 -7.086505 16 25 14
3.111111 -1.750000 -7.111111 18 22 13
7.125000 -3.937500 -16.000000 20 22 13
6.891386 -3.775281 -15.340824 20 22 13
6.848709 -3.719557 -15.114391 23 25 16
7.011236 -3.775281 -15.340824 24 27 11
4.485356 -2.108787 -8.569037 51 54 38
4.518828 -2.108787 -8.569037 58 60 51
2.861619 -1.315927 -5.347259 31 33 24
2.871261 -1.310793 -5.326398 27 29 20
2.854942 -1.293967 -5.258023 27 29 20
2.912874 -1.310793 -5.326398 27 29 20
3.552756 -1.587402 -6.450394 27 29 20
3.555556 -1.577465 -6.410016 29 31 22
3.586207 -1.579937 -6.420063 29 31 22
-3.705722 -2.790191 -11.160763 36 47 48
-3.652174 -2.782609 -11.130435 36 58 75
-3.618529 -2.790191 -11.160763 25 47 64
-3.574932 -2.790191 -11.160763 40 70 96
-0.797468 -0.810127 -3.240506 17 32 38
-0.784810 -0.810127 -3.240506 15 30 36
-0.845754 -0.887348 -3.549393 18 29 34
-0.832611 -0.888118 -3.552472 22 33 38
-0.829525 -0.899824 -3.599297 29 40 45
-0.816901 -0.901408 -3.605634 42 53 58
-0.804943 -0.903795 -3.615181 43 60 61
-0.792920 -0.906195 -3.624779 42 59 60
-0.782222 -0.910222 -3.640889 23 37 48
-0.770053 -0.912656 -3.650624 17 26 23
-0.757819 -0.915103 -3.660411 25 34 31
-0.744852 -0.916741 -3.666965 26 44 42
-0.746569 -0.936871 -3.747484 12 30 28
-0.731930 -0.936871 -3.747484 14 23 20
-0.717949 -0.937729 -3.750916 12 20 17
-0.703297 -0.937729 -3.750916 13 21 18
-0.689908 -0.939450 -3.757798 14 22 19
-0.675229 -0.939450 -3.757798 14 22 19
-0.661157 -0.940312 -3.761249 14 22 19
-0.647059 -0.941176 -3.764706 19 28 29
-0.512456 -0.911032 -3.644128 15 23 20
-0.497336 -0.909414 -3.637655 18 26 23
-0.447368 -0.842105 -3.368421 24 32 29
-0.434211 -0.842105 -3.368421 19 26 28
-0.422442 -0.844885 -3.379538 17 24 26
0.157225 -0.591908 -2.367630 177 191 186
0.165327 -0.587830 -2.351320 183 192 189
0.174612 -0.588168 -2.352671 183 192 189
0.281375 -0.818545 -3.274181 185 196 182
0.225905 -0.628606 -2.514426 185 194 191
0.235294 -0.627451 -2.509804 186 195 192
0.245098 -0.627451 -2.509804 184 193 190
0.254746 -0.627067 -2.508267 173 182 179
0.264059 -0.625917 -2.503668 160 171 157
0.273171 -0.624390 -2.497561 139 150 136
0.282927 -0.624390 -2.497561 147 159 138
0.322798 -0.688635 -2.754539 208 218 209
0.332663 -0.686787 -2.747149 206 216 207
0.340879 -0.681758 -2.727031 206 215 212
0.351297 -0.681304 -2.725216 206 215 212
0.362425 -0.682212 -2.728848 205 214 211
0.376344 -0.688172 -2.752688 205 214 211
0.386318 -0.686787 -2.747149 206 216 209
0.397049 -0.686787 -2.747149 206 216 209
0.398506 -0.637609 -2.550436 206 215 212
0.405941 -0.633663 -2.534653 206 215 212
0.415842 -0.633663 -2.534653 205 214 211
0.486027 -0.622114 -2.488457 194 203 200
0.495747 -0.622114 -2.488457 200 209 206
0.505775 -0.622492 -2.489969 194 203 200
0.515501 -0.622492 -2.489969 198 207 204
0.502910 -0.596042 -2.384168 204 213 210
0.510441 -0.593967 -2.375870 203 212 209
0.518819 -0.592936 -2.371743 200 209 206
0.528083 -0.592936 -2.371743 195 207 203
0.549550 -0.576577 -2.306306 199 208 205
0.558559 -0.576577 -2.306306 200 209 206
0.567568 -0.576577 -2.306306 186 195 192
0.576577 -0.576577 -2.306306 194 203 200
0.585586 -0.576577 -2.306306 199 208 205
0.594595 -0.576577 -2.306306 186 195 192
0.603604 -0.576577 -2.306306 196 205 202
0.612613 -0.576577 -2.306306 199 208 205
0.621622 -0.576577 -2.306306 198 207 204
0.630631 -0.576577 -2.306306 188 202 197
0.748846 -0.675016 -2.700066 180 194 189
0.800520 -0.665367 -2.661469 131 134 114
0.804642 -0.660219 -2.640877 126 129 109
0.809219 -0.655570 -2.622279 129 132 114
0.819462 -0.655570 -2.622279 128 131 113
0.828115 -0.654313 -2.617252 129 125 112
0.796117 -0.621359 -2.485437 132 128 115
0.805825 -0.621359 -2.485437 131 130 111
0.815534 -0.621359 -2.485437 123 123 99
0.827251 -0.622871 -2.491484 79 79 55
0.874206 -0.650572 -2.602287 125 116 95
0.884371 -0.650572 -2.602287 135 126 105
0.891704 -0.648512 -2.594047 140 124 106
0.904127 -0.650159 -2.600635 131 115 97
0.914286 -0.650159 -2.600635 117 102 81
0.924444 -0.650159 -2.600635 110 95 74
0.925786 -0.644025 -2.576101 109 95 69
0.925949 -0.637212 -2.548849 111 95 65
0.926679 -0.630930 -2.523721 106 90 60
1.011311 -0.681304 -2.725216 104 83 57
1.028801 -0.685867 -2.743469 99 78 52
0.943465 -0.622492 -2.489969 102 80 57
0.952034 -0.621736 -2.486946 105 83 60
0.961749 -0.621736 -2.486946 109 88 58
0.971463 -0.621736 -2.486946 111 90 60
0.986569 -0.625153 -2.500611 109 93 59
1.064579 -0.667971 -2.671885 107 91 57
2.911612 -1.774697 -7.098787 46 36 9
2.924138 -1.765517 -7.062069 20 25 13
2.906621 -1.738540 -6.954160 17 22 10
3.050260 -1.774697 -7.098787 17 28 14
3.083333 -1.777778 -7.111111 14 25 11
3.111111 -1.777778 -7.111111 14 25 11
6.771535 -3.835206 -15.340824 15 24 11
7.125000 -4.000000 -16.000000 14 23 10
7.187500 -4.000000 -16.000000 20 22 11
6.951311 -3.835206 -15.340824 23 25 14
7.011236 -3.835206 -15.340824 23 25 14
4.466667 -2.133333 -8.533334 57 60 40
2.854942 -1.314506 -5.258023 35 37 26
3.561208 -1.627981 -6.511924 30 32 21
3.586645 -1.627981 -6.511924 29 31 20
3.577953 -1.612598 -6.450394 29 32 16
4.167577 -1.865209 -7.460838 30 32 21
-1.570094 -1.214953 -4.785047 21 47 74
-3.618529 -2.833787 -11.160763 37 63 90
-3.574932 -2.833787 -11.160763 28 61 97
-1.141798 -0.963855 -3.796108 17 26 23
-0.872727 -0.900433 -3.546320 36 40 35
-0.852966 -0.894239 -3.521926 25 29 24
-0.839209 -0.894239 -3.521926 18 25 25
-0.831889 -0.901213 -3.549393 19 26 26
-0.828797 -0.913082 -3.596137 23 30 34
-0.816901 -0.915493 -3.605634 30 37 41
-0.804233 -0.917108 -3.611993 33 45 52
-0.796444 -0.924444 -3.640889 37 49 56
-0.786416 -0.929401 -3.660411 24 39 45
-0.772809 -0.930233 -3.663685 14 22 19
-0.759857 -0.931900 -3.670251 19 27 24
-0.761208 -0.951510 -3.747484 22 30 27
-0.747253 -0.952381 -3.750916 14 23 20
-0.731930 -0.951510 -3.747484 11 20 17
-0.714025 -0.947177 -3.730419 11 20 17
-0.702653 -0.951510 -3.747484 11 20 17
-0.689908 -0.954128 -3.757798 12 21 18
-0.675849 -0.955005 -3.761249 13 22 19
-0.661765 -0.955882 -3.764706 12 21 18
-0.649446 -0.959410 -3.778598 15 24 21
-0.497336 -0.923623 -3.637655 17 26 23
-0.447368 -0.855263 -3.368421 23 32 29
-0.434568 -0.855967 -3.371193 16 34 32
-0.421399 -0.855967 -3.371193 11 29 27
-0.409241 -0.858086 -3.379538 13 26 26
0.149271 -0.606414 -2.388338 180 188 185
0.157681 -0.602899 -2.374493 183 191 188
0.166474 -0.601156 -2.367630 183 191 188
0.243590 -0.833333 -3.282051 183 191 188
0.281375 -0.831335 -3.274181 184 193 182
0.244356 -0.690571 -2.719788 184 192 189
0.235583 -0.638037 -2.512883 186 194 191
0.245399 -0.638037 -2.512883 183 191 188
0.255215 -0.638037 -2.512883 176 184 181
0.265193 -0.638429 -2.514426 165 174 163
0.302090 -0.701281 -2.761969 151 160 149
0.343394 -0.697518 -2.747149 207 215 212
0.406696 -0.644761 -2.539368 205 213 210
0.466200 -0.606061 -2.386946 202 214 210
0.474695 -0.605003 -2.382781 189 201 197
0.483721 -0.604651 -2.381395 198 206 203
0.493023 -0.604651 -2.381395 180 188 185
0.501160 -0.603248 -2.375870 182 190 187
0.509259 -0.601852 -2.370370 201 209 206
0.518519 -0.601852 -2.370370 204 212 209
0.527778 -0.601852 -2.370370 202 210 207
0.537348 -0.602200 -2.371743 199 207 204
0.549550 -0.585586 -2.306306 197 205 202
0.558559 -0.585586 -2.306306 199 207 204
0.567568 -0.585586 -2.306306 199 207 204
0.576577 -0.585586 -2.306306 194 202 199
0.585586 -0.585586 -2.306306 201 209 206
0.594595 -0.585586 -2.306306 199 207 204
0.603604 -0.585586 -2.306306 191 199 196
0.612613 -0.585586 -2.306306 183 191 185
0.621622 -0.585586 -2.306306 194 202 196
0.630631 -0.585586 -2.306306 200 208 205
0.639640 -0.585586 -2.306306 200 208 205
0.799481 -0.674886 -2.658014 124 127 111
0.804124 -0.670103 -2.639175 126 129 113
0.814433 -0.670103 -2.639175 128 131 113
0.796117 -0.631068 -2.485437 126 128 119
0.805337 -0.630685 -2.483930 126 128 117
0.815534 -0.631068 -2.485437 75 68 49
0.825744 -0.631451 -2.486946 93 86 67
0.836983 -0.632603 -2.491484 129 111 91
0.880455 -0.657812 -2.590765 143 125 105
0.891139 -0.658228 -2.592405 148 131 120
0.901266 -0.658228 -2.592405 145 128 117
0.911392 -0.658228 -2.592405 142 125 114
0.915148 -0.653677 -2.574481 124 107 96
0.912020 -0.644362 -2.537794 95 77 59
0.914005 -0.638821 -2.515970 103 77 55
0.919878 -0.636086 -2.505199 101 75 53
0.928528 -0.635309 -2.502138 97 75 52
0.933739 -0.632219 -2.489969 97 75 52
0.942892 -0.631835 -2.488457 97 75 52
0.951456 -0.631068 -2.485437 99 77 54
0.961165 -0.631068 -2.485437 104 83 57
0.970874 -0.631068 -2.485437 107 86 60
0.982371 -0.632219 -2.489969 106 88 59
0.996337 -0.634921 -2.500611 102 84 55
5.971831 -3.661972 -14.422535 43 44 27
6.132404 -3.623693 -14.271777 23 29 19
3.088696 -1.808696 -7.123478 20 26 16
3.116522 -1.808696 -7.123478 18 27 16
3.149826 -1.811847 -7.135889 23 25 16
7.125000 -4.062500 -16.000000 20 22 13
7.187500 -4.062500 -16.000000 20 22 13
6.951311 -3.895131 -15.340824 23 25 16
3.250000 -1.805556 -7.111111 23 25 16
3.277778 -1.805556 -7.111111 27 29 20
4.652719 -2.175732 -8.569037 39 41 32
4.125230 -1.915285 -7.543278 34 36 27
4.109290 -1.894353 -7.460838 33 35 26
4.123412 -1.887477 -7.433757 30 33 17
-1.573771 -1.236534 -4.796253 26 54 87
-1.192917 -0.984157 -3.817335 80 94 107
-1.178006 -0.984157 -3.817335 67 81 94
-1.160930 -0.982326 -3.810233 17 26 23
-1.141798 -0.978684 -3.796108 13 29 28
-1.129062 -0.980501 -3.803157 37 53 52
-1.057728 -0.983240 -3.813780 77 62 39
-1.040892 -0.981413 -3.806691 86 71 48
-1.024119 -0.979592 -3.799629 88 70 41
-0.872727 -0.914286 -3.546320 69 56 32
-0.851502 -0.906438 -3.515880 60 47 23
-0.835616 -0.904110 -3.506849 42 38 29
-0.821215 -0.903336 -3.503850 34 30 21
-0.829525 -0.927944 -3.599297 22 30 27
-0.816901 -0.929577 -3.605634 27 35 32
-0.804233 -0.931217 -3.611993 26 39 41
-0.799286 -0.942016 -3.653880 25 38 40
-0.807339 -0.968807 -3.757798 20 29 30
-0.792661 -0.968807 -3.757798 10 19 16
-0.778696 -0.969697 -3.761249 13 21 18
-0.761905 -0.967033 -3.750916 18 26 23
-0.746569 -0.966148 -3.747484 18 26 23
-0.727934 -0.960874 -3.727025 14 22 19
-0.713376 -0.960874 -3.727025 12 20 17
-0.698817 -0.960874 -3.727025 11 19 16
-0.689908 -0.968807 -3.757798 12 20 17
-0.676471 -0.970588 -3.764706 13 21 18
-0.661765 -0.970588 -3.764706 14 22 19
-0.648848 -0.973272 -3.775115 13 21 18
-0.634686 -0.974170 -3.778598 14 22 19
-0.622799 -0.978684 -3.796108 14 22 19
-0.469799 -0.885906 -3.436242 15 23 20
-0.449959 -0.873449 -3.387924 22 30 27
-0.434926 -0.869852 -3.373970 23 36 36
-0.421746 -0.869852 -3.373970 17 30 30
-0.394737 -0.868421 -3.368421 18 25 25
-0.380640 -0.866284 -3.360131 25 37 44
-0.365118 -0.860636 -3.338223 49 61 68
0.149708 -0.617544 -2.395322 185 194 191
0.157773 -0.612529 -2.375870 185 194 191
0.240602 -0.882205 -3.421888 183 194 180
0.255248 -0.886650 -3.439127 182 193 179
0.447552 -0.615385 -2.386946 202 214 210
0.456079 -0.614311 -2.382781 202 214 210
0.464576 -0.613240 -2.378629 199 216 210
0.473868 -0.613240 -2.378629 199 216 210
0.481760 -0.611465 -2.371743 195 204 201
0.490457 -0.610758 -2.368999 195 204 201
0.501160 -0.612529 -2.375870 186 195 192
0.510145 -0.612174 -2.374493 187 196 193
0.518519 -0.611111 -2.370370 200 209 206
0.527778 -0.611111 -2.370370 203 212 209
0.536416 -0.610405 -2.367630 202 211 208
0.545665 -0.610405 -2.367630 199 208 205
0.555492 -0.601024 -2.331246 181 190 187
0.558559 -0.594595 -2.306306 187 196 193
0.567568 -0.594595 -2.306306 199 208 205
0.576577 -0.594595 -2.306306 198 207 204
0.585586 -0.594595 -2.306306 184 193 190
0.594595 -0.594595 -2.306306 198 207 204
0.603604 -0.594595 -2.306306 196 205 202
0.612613 -0.594595 -2.306306 193 202 199
0.621622 -0.594595 -2.306306 174 183 180
0.630631 -0.594595 -2.306306 193 202 199
0.639640 -0.594595 -2.306306 201 210 207
0.759615 -0.634615 -2.461539 124 127 109
0.770156 -0.635379 -2.464501 126 129 111
0.784029 -0.638838 -2.477919 124 127 109
0.793708 -0.638838 -2.477919 126 129 111
0.803388 -0.638838 -2.477919 126 128 106
0.814052 -0.639612 -2.480921 61 48 24
0.823743 -0.639612 -2.480921 98 85 61
0.831923 -0.638452 -2.476421 126 103 80
0.837545 -0.635379 -2.464501 140 117 94
0.847172 -0.635379 -2.464501 144 125 110
0.891672 -0.661240 -2.564809 142 123 108
0.905091 -0.663733 -2.574481 138 119 104
0.911709 -0.661240 -2.564809 129 110 95
0.915993 -0.657125 -2.548849 95 75 58
0.918519 -0.651852 -2.528395 85 65 48
0.926679 -0.650647 -2.523721 91 69 46
0.929664 -0.645872 -2.505199 90 70 37
0.933739 -0.641945 -2.489969 88 68 35
0.941748 -0.640777 -2.485437 89 67 44
0.950879 -0.640388 -2.483930 95 73 50
0.958258 -0.638838 -2.477919 97 80 46
0.967937 -0.638838 -2.477919 101 84 50
0.978801 -0.639612 -2.480921 103 89 61
0.990893 -0.641166 -2.486946 94 80 52
5.971831 -3.718310 -14.422535 81 80 59
6.197183 -3.718310 -14.422535 30 32 21
6.231579 -3.705263 -14.371930 25 27 16
3.116522 -1.836522 -7.123478 14 25 11
7.062500 -4.125000 -16.000000 14 23 10
7.125000 -4.125000 -16.000000 13 22 9
7.187500 -4.125000 -16.000000 14 23 10
3.211073 -1.826990 -7.086505 16 25 12
3.227586 -1.820690 -7.062069 23 25 14
3.255172 -1.820690 -7.062069 27 29 18
3.305556 -1.833333 -7.111111 30 33 15
4.731915 -2.246809 -8.714893 24 26 15
4.686193 -2.209205 -8.569037 26 28 17
4.154696 -1.944751 -7.543278 29 31 20
4.138433 -1.923497 -7.460838 30 33 17
-1.212348 -1.002806 -3.831618 36 55 71
-1.192917 -0.999068 -3.817335 23 34 35
-1.178006 -0.999068 -3.817335 11 22 23
-1.163094 -0.999068 -3.817335 21 30 27
-1.144981 -0.996283 -3.806691 27 45 66
-1.131163 -0.997209 -3.810233 40 58 79
-1.118360 -0.999068 -3.817335 52 72 85
-1.088537 -0.999068 -3.817335 68 58 42
-1.072626 -0.998138 -3.813780 83 73 57
-1.057728 -0.998138 -3.813780 97 76 46
-1.038961 -0.994434 -3.799629 97 76 46
-1.018450 -0.988930 -3.778598 97 76 46
-1.003690 -0.988930 -3.778598 94 73 43
-0.872727 -0.928139 -3.546320 87 65 42
-0.849315 -0.917808 -3.506849 80 58 35
-0.834188 -0.916239 -3.500855 68 53 30
-0.819812 -0.915457 -3.497865 67 52 29
-0.805461 -0.914676 -3.494880 54 47 28
-0.791809 -0.914676 -3.494880 46 39 20
-0.770270 -0.905405 -3.459460 32 35 34
-0.756757 -0.905405 -3.459460 44 39 19
-0.807339 -0.983486 -3.757798 30 32 21
-0.792661 -0.983486 -3.757798 13 21 18
-0.778696 -0.984389 -3.761249 14 22 19
-0.764004 -0.984389 -3.761249 16 25 22
-0.745887 -0.979890 -3.744059 18 27 24
-0.726612 -0.973660 -3.720254 17 26 23
-0.712080 -0.973660 -3.720254 13 22 19
-0.696915 -0.972777 -3.716878 12 21 18
-0.636210 -0.906937 -3.465313 12 21 18
-0.622147 -0.906171 -3.462384 15 24 21
-0.609653 -0.907705 -3.468247 16 25 22
-0.596105 -0.907705 -3.468247 13 22 19
-0.582557 -0.907705 -3.468247 11 20 17
-0.567568 -0.905405 -3.459460 11 20 17
-0.554054 -0.905405 -3.459460 11 20 17
-0.573477 -0.960573 -3.670251 11 20 17
-0.513948 -0.906171 -3.462384 15 24 21
-0.499578 -0.904641 -3.456540 13 22 19
-0.484848 -0.902357 -3.447811 12 21 18
-0.466667 -0.893333 -3.413333 12 21 18
-0.452579 -0.891847 -3.407654 16 25 22
-0.438538 -0.890365 -3.401993 23 32 29
-0.391198 -0.873676 -3.338223 15 24 21
-0.378158 -0.873676 -3.338223 18 27 24
-0.285897 -0.684110 -2.613912 33 42 39
-0.274984 -0.682368 -2.607256 57 76 81
-0.264631 -0.681934 -2.605598 41 70 107
0.141760 -0.633196 -2.419374 181 195 190
0.150943 -0.632075 -2.415094 186 194 191
0.228380 -0.900084 -3.439127 185 193 190
0.438228 -0.624709 -2.386946 206 214 208
0.436116 -0.608745 -2.325951 206 214 211
0.445202 -0.608745 -2.325951 205 213 210
0.455322 -0.610131 -2.331246 203 215 211
0.465222 -0.611174 -2.335234 202 214 210
0.474344 -0.611174 -2.335234 202 214 210
0.482641 -0.610131 -2.331246 197 209 205
0.491747 -0.610131 -2.331246 194 202 199
0.499432 -0.608400 -2.324631 199 207 204
0.504505 -0.603604 -2.306306 190 198 195
0.513514 -0.603604 -2.306306 202 210 207
0.526375 -0.608054 -2.323313 203 211 208
0.536364 -0.609091 -2.327273 203 211 208
0.545455 -0.609091 -2.327273 199 207 204
0.549550 -0.603604 -2.306306 196 208 204
0.558559 -0.603604 -2.306306 179 191 187
0.567568 -0.603604 -2.306306 180 194 189
0.576577 -0.603604 -2.306306 193 207 202
0.585586 -0.603604 -2.306306 190 198 195
0.594595 -0.603604 -2.306306 176 184 181
0.603604 -0.603604 -2.306306 198 206 203
0.612613 -0.603604 -2.306306 199 207 204
0.621622 -0.603604 -2.306306 195 203 200
0.630631 -0.603604 -2.306306 197 205 202
0.675676 -0.603604 -2.306306 128 130 117
0.684685 -0.603604 -2.306306 128 130 117
0.771549 -0.646172 -2.468957 125 127 116
0.780723 -0.645783 -2.467470 122 125 109
0.790361 -0.645783 -2.467470 126 129 113
0.800482 -0.646172 -2.468957 108 105 89
0.810615 -0.646562 -2.470446 67 47 30
0.820265 -0.646562 -2.470446 95 75 58
0.827420 -0.644618 -2.463019 120 92 69
0.835534 -0.643457 -2.458583 131 103 80
0.843619 -0.642301 -2.454164 136 111 96
0.855769 -0.644231 -2.461539 137 112 97
0.892193 -0.664188 -2.537794 134 109 94
0.911709 -0.671259 -2.564809 125 100 85
0.933739 -0.651672 -2.489969 76 59 32
0.941176 -0.650091 -2.483930 77 63 37
0.948578 -0.648518 -2.477919 78 64 38
0.957678 -0.648126 -2.476421 75 61 35
0.967352 -0.648126 -2.476421 83 69 43
0.978801 -0.649303 -2.480921 118 109 88
0.990893 -0.650880 -2.486946 109 100 79
1.072917 -0.697917 -2.666667 88 79 58
2.230563 -1.436997 -5.490617 86 79 58
5.971831 -3.774648 -14.422535 83 81 60
6.028169 -3.774648 -14.422535 79 77 56
6.020906 -3.735192 -14.271777 75 73 52
6.076655 -3.735192 -14.271777 48 46 25
6.132404 -3.735192 -14.271777 30 32 19
6.231579 -3.761404 -14.371930 23 25 12
3.116522 -1.864348 -7.123478 16 22 12
7.125000 -4.187500 -16.000000 13 22 11
3.183391 -1.854671 -7.086505 14 23 12
3.200000 -1.848276 -7.062069 15 24 13
3.222031 -1.845095 -7.049914 23 25 16
3.249570 -1.845095 -7.049914 26 28 19
3.627750 -1.813875 -6.930626 25 27 18
4.635193 -2.300429 -8.789700 23 25 16
4.697872 -2.280851 -8.714893 23 25 16
4.652719 -2.242678 -8.569037 24 26 17
4.666667 -2.233333 -8.533334 26 28 19
3.909879 -1.857886 -7.098787 28 30 21
3.897084 -1.838765 -7.025729 28 30 21
-1.248335 -1.035205 -3.897241 23 44 64
-1.220339 -1.024482 -3.856874 7 28 48
-1.197381 -1.017774 -3.831618 14 23 20
-1.180205 -1.015873 -3.824463 17 26 23
-1.163094 -1.013980 -3.817335 19 36 55
-1.146047 -1.012093 -3.810233 19 36 57
-1.131163 -1.012093 -3.810233 23 40 61
-1.118360 -1.013980 -3.817335 48 51 50
-1.103448 -1.013980 -3.817335 62 65 64
-1.087523 -1.013035 -3.813780 93 72 42
-1.071628 -1.012093 -3.810233 98 77 47
-1.055762 -1.011152 -3.806691 101 78 53
-1.040892 -1.011152 -3.806691 99 76 51
-1.024119 -1.009276 -3.799629 95 78 44
-1.011152 -1.011152 -3.806691 95 78 44
-0.850772 -0.933105 -3.512865 85 68 34
-0.834902 -0.930710 -3.503850 73 59 33
-0.819113 -0.928328 -3.494880 71 57 31
-0.805461 -0.928328 -3.494880 66 58 28
-0.783784 -0.918919 -3.459460 74 61 28
-0.766387 -0.914286 -3.442017 72 56 38
-0.751048 -0.911987 -3.433361 67 51 33
-0.735171 -0.908939 -3.421888 61 47 30
-0.720000 -0.906667 -3.413333 37 36 19
-0.706667 -0.906667 -3.413333 28 27 10
-0.742493 -0.989991 -3.727025 23 29 19
-0.725953 -0.987296 -3.716878 20 28 25
-0.663844 -0.921253 -3.468247 18 26 23
-0.649197 -0.919696 -3.462384 16 24 21
-0.635135 -0.918919 -3.459460 16 24 21
-0.621097 -0.918143 -3.456540 17 25 22
-0.607595 -0.918143 -3.456540 19 27 24
-0.596105 -0.921253 -3.468247 18 26 23
-0.582557 -0.921253 -3.468247 15 23 20
-0.567089 -0.918143 -3.456540 13 21 18
-0.553586 -0.918143 -3.456540 12 20 17
-0.540541 -0.918919 -3.459460 12 20 12
-0.527027 -0.918919 -3.459460 13 21 13
-0.512648 -0.917369 -3.453626 13 21 13
-0.497897 -0.915055 -3.444912 12 20 12
-0.481605 -0.909699 -3.424749 12 20 12
-0.465890 -0.905158 -3.407654 12 20 12
-0.451827 -0.903654 -3.401993 13 21 13
-0.438538 -0.903654 -3.401993 16 24 18
-0.422442 -0.897690 -3.379538 17 25 19
-0.356322 -0.781609 -2.942529 14 22 19
-0.344828 -0.781609 -2.942529 14 22 19
-0.333333 -0.781609 -2.942529 14 22 19
-0.323699 -0.786127 -2.959538 20 28 25
-0.312590 -0.787265 -2.963820 49 61 66
-0.264800 -0.692553 -2.607256 26 57 94
-0.289436 -0.787265 -2.963820 17 45 78
0.133096 -0.646465 -2.433749 183 192 189
0.142349 -0.645314 -2.429419 185 194 191
0.151479 -0.643787 -2.423669 183 193 184
0.333333 -0.612613 -2.306306 205 215 206
0.342342 -0.612613 -2.306306 205 214 211
0.427516 -0.618533 -2.328596 204 214 207
0.435868 -0.617480 -2.324631 203 214 200
0.445202 -0.617831 -2.325951 203 214 200
0.454545 -0.618182 -2.327273 200 214 209
0.463636 -0.618182 -2.327273 200 214 209
0.473534 -0.619237 -2.331246 198 215 209
0.481271 -0.617480 -2.324631 198 215 209
0.490352 -0.617480 -2.324631 200 209 206
0.499432 -0.617480 -2.324631 190 199 196
0.504505 -0.612613 -2.306306 179 188 185
0.513514 -0.612613 -2.306306 182 191 188
0.522523 -0.612613 -2.306306 201 210 207
0.531532 -0.612613 -2.306306 202 211 208
0.540541 -0.612613 -2.306306 202 211 208
0.549550 -0.612613 -2.306306 199 208 205
0.558559 -0.612613 -2.306306 198 207 204
0.567568 -0.612613 -2.306306 191 200 197
0.576577 -0.612613 -2.306306 189 198 195
0.585586 -0.612613 -2.306306 198 207 204
0.594595 -0.612613 -2.306306 195 204 201
0.603604 -0.612613 -2.306306 173 182 179
0.612613 -0.612613 -2.306306 192 201 198
0.621622 -0.612613 -2.306306 199 208 205
0.630631 -0.612613 -2.306306 200 209 206
0.672727 -0.618182 -2.327273 184 185 179
0.675676 -0.612613 -2.306306 129 131 120
0.684685 -0.612613 -2.306306 128 130 119
0.763746 -0.657402 -2.474925 119 121 108
0.770620 -0.655027 -2.465984 127 129 116
0.779783 -0.654633 -2.464501 123 125 114
0.788936 -0.654239 -2.463019 118 120 109
0.798557 -0.654239 -2.463019 67 57 41
0.808178 -0.654239 -2.463019 69 44 29
0.817308 -0.653846 -2.461539 91 66 51
0.825930 -0.653061 -2.458583 110 83 55
0.834532 -0.652278 -2.455636 122 95 67
0.843619 -0.651887 -2.454164 125 105 88
0.855769 -0.653846 -2.461539 125 105 88
0.869565 -0.657005 -2.473430 118 98 81
0.998051 -0.706953 -2.661469 62 47 26
0.992327 -0.695652 -2.618926 58 43 22
0.949727 -0.658995 -2.480921 53 38 17
0.958258 -0.658197 -2.477919 55 39 21
1.062500 -0.708333 -2.666667 122 113 92
1.072219 -0.707872 -2.664932 87 78 57
2.209827 -1.444887 -5.439575 85 77 63
2.252011 -1.458445 -5.490617 86 78 64
2.273458 -1.458445 -5.490617 82 82 58
2.288770 -1.454545 -5.475936 81 81 57
2.307076 -1.452603 -5.468625 77 75 50
2.319149 -1.446808 -5.446808 72 70 45
2.340425 -1.446808 -5.446808 49 50 33
2.358566 -1.444887 -5.439575 25 26 9
6.309859 -3.830986 -14.422535 20 22 11
3.150259 -1.879102 -7.074266 12 23 9
3.166954 -1.872633 -7.049914 13 24 10
3.194492 -1.872633 -7.049914 16 27 13
3.216495 -1.869416 -7.037801 24 26 13
3.243986 -1.869416 -7.037801 26 28 15
3.650086 -1.866209 -7.025729 24 26 15
3.621622 -1.837838 -6.918919 25 27 16
3.642496 -1.834739 -6.907251 23 25 14
3.657143 -1.828571 -6.884034 22 24 13
4.638656 -2.285714 -8.605042 23 25 14
4.643006 -2.271399 -8.551148 25 27 16
3.875432 -1.882353 -7.086505 28 30 19
3.876289 -1.869416 -7.037801 29 31 20
3.857385 -1.847199 -6.954160 28 30 21
3.897785 -1.853492 -6.977853 27 29 20
-1.242424 -1.045455 -3.878788 17 27 35
-1.220339 -1.039548 -3.856874 15 25 33
-1.197381 -1.032741 -3.831618 16 32 42
-1.181308 -1.031776 -3.828038 24 40 50
-1.165266 -1.030812 -3.824463 16 33 65
-1.149254 -1.029851 -3.820895 22 33 38
-1.132216 -1.027933 -3.813780 34 45 50
-1.117318 -1.027933 -3.813780 77 61 43
-1.102421 -1.027933 -3.813780 89 73 55
-1.083488 -1.024119 -3.799629 96 77 51
-1.068646 -1.024119 -3.799629 96 77 51
-1.053803 -1.024119 -3.799629 103 81 58
-1.038961 -1.024119 -3.799629 103 81 58
-1.017511 -1.017511 -3.775115 98 77 47
-1.009276 -1.024119 -3.799629 97 76 46
-0.851502 -0.947639 -3.515880 87 66 36
-0.837050 -0.946827 -3.512865 82 61 33
-0.819812 -0.942784 -3.497865 85 66 42
-0.805461 -0.941980 -3.494880 82 66 32
-0.781145 -0.929293 -3.447811 80 64 30
-0.766387 -0.927731 -3.442017 81 62 38
-0.749164 -0.923077 -3.424749 79 60 36
-0.733945 -0.920767 -3.416180 73 58 37
-0.720000 -0.920000 -3.413333 63 50 28
-0.706078 -0.919234 -3.410491 59 46 24
-0.680851 -0.939574 -3.485957 32 34 23
-0.662162 -0.932432 -3.459460 28 30 19
-0.647555 -0.930860 -3.453626 22 27 22
-0.634064 -0.930860 -3.453626 21 26 21
-0.620573 -0.930860 -3.453626 21 27 19
-0.606571 -0.930076 -3.450716 23 29 21
-0.593092 -0.930076 -3.450716 22 27 25
-0.579612 -0.930076 -3.450716 20 25 23
-0.564232 -0.926952 -3.439127 19 24 22
-0.548495 -0.923077 -3.424749 18 23 21
-0.528926 -0.912397 -3.385124 14 25 11
-0.515277 -0.911643 -3.382329 14 25 11
-0.508361 -0.923077 -3.424749 12 23 9
-0.494983 -0.923077 -3.424749 12 23 9
-0.478405 -0.916944 -3.401993 12 23 9
-0.462046 -0.910891 -3.379538 11 22 8
-0.447737 -0.908642 -3.371193 11 22 8
-0.434568 -0.908642 -3.371193 12 23 9
-0.418643 -0.902698 -3.349141 14 25 11
-0.356322 -0.793103 -2.942529 13 23 14
-0.344828 -0.793103 -2.942529 12 22 13
-0.336232 -0.800000 -2.968116 12 22 13
0.124105 -0.658711 -2.443914 180 194 189
0.133096 -0.655971 -2.433749 186 194 191
0.142349 -0.654804 -2.429419 186 194 191
0.151479 -0.653254 -2.423669 185 194 183
0.324324 -0.621622 -2.306306 206 214 211
0.333333 -0.621622 -2.306306 205 213 210
0.342342 -0.621622 -2.306306 205 213 210
0.368576 -0.652097 -2.419374 204 212 209
0.442353 -0.649412 -2.409412 200 214 209
0.436612 -0.627629 -2.328596 203 211 208
0.445708 -0.627629 -2.328596 204 212 209
0.455322 -0.628344 -2.331246 204 212 209
0.464428 -0.628344 -2.331246 204 212 209
0.473534 -0.628344 -2.331246 204 212 209
0.481818 -0.627273 -2.327273 204 212 209
0.513514 -0.621622 -2.306306 192 201 198
0.522523 -0.621622 -2.306306 196 205 202
0.531532 -0.621622 -2.306306 193 201 198
0.540541 -0.621622 -2.306306 195 203 200
0.549550 -0.621622 -2.306306 200 208 205
0.558559 -0.621622 -2.306306 187 195 192
0.567568 -0.621622 -2.306306 198 206 203
0.576577 -0.621622 -2.306306 200 208 205
0.585586 -0.621622 -2.306306 176 183 183
0.594595 -0.621622 -2.306306 190 198 195
0.603604 -0.621622 -2.306306 199 207 204
0.612613 -0.621622 -2.306306 201 209 206
0.621622 -0.621622 -2.306306 201 209 206
0.671650 -0.634848 -2.355377 156 156 156
0.675029 -0.629418 -2.335234 132 130 116
0.681044 -0.626561 -2.324631 131 131 123
0.727273 -0.660287 -2.449761 131 131 123
0.763285 -0.666667 -2.473430 116 118 109
0.770620 -0.664660 -2.465984 126 128 119
0.780253 -0.664660 -2.465984 126 128 115
0.788936 -0.663860 -2.463019 79 81 68
0.798557 -0.663860 -2.463019 64 50 31
0.808178 -0.663860 -2.463019 75 50 35
0.817799 -0.663860 -2.463019 85 60 45
0.825930 -0.662665 -2.458583 104 76 41
0.835534 -0.662665 -2.458583 115 87 52
0.846154 -0.663462 -2.461539 118 91 74
0.858866 -0.665863 -2.470446 108 81 64
0.870617 -0.667473 -2.476421 83 63 46
0.950392 -0.720627 -2.673629 71 51 34
0.984938 -0.722986 -2.682384 52 36 18
0.992167 -0.720627 -2.673629 50 36 17
0.998051 -0.717349 -2.661469 51 37 18
1.003232 -0.713639 -2.647705 55 38 27
1.005773 -0.708146 -2.627325 61 44 33
1.016036 -0.708146 -2.627325 71 55 37
1.062500 -0.718750 -2.666667 115 99 81
1.072219 -0.718282 -2.664932 80 71 50
1.083333 -0.718750 -2.666667 77 74 58
2.198953 -1.445026 -5.361257 79 76 60
2.249337 -1.464191 -5.432361 80 77 61
2.270557 -1.464191 -5.432361 79 76 60
2.297872 -1.468085 -5.446808 79 76 60
2.316069 -1.466136 -5.439575 78 75 59
2.334218 -1.464191 -5.432361 76 73 57
2.349206 -1.460317 -5.417989 61 58 42
2.361001 -1.454545 -5.396574 21 23 14
2.366492 -1.445026 -5.361257 13 22 11
2.387434 -1.445026 -5.361257 13 22 11
3.156089 -1.893654 -7.025729 14 23 12
3.183533 -1.893654 -7.025729 17 26 15
3.167513 -1.868020 -6.930626 23 25 16
3.183811 -1.861720 -6.907251 24 26 17
3.713787 -1.926702 -7.148342 27 29 20
3.621622 -1.864865 -6.918919 27 29 20
3.630252 -1.855462 -6.884034 24 26 17
3.657143 -1.855462 -6.884034 23 25 16
4.585774 -2.309623 -8.569037 23 25 16
4.609603 -2.304802 -8.551148 23 25 16
4.633333 -2.300000 -8.533334 25 27 18
3.868739 -1.906736 -7.074266 25 27 18
3.830221 -1.874363 -6.954160 25 27 18
3.857385 -1.874363 -6.954160 26 28 19
-1.242424 -1.060606 -3.878788 21 30 31
-1.213483 -1.048689 -3.835206 29 38 39
-1.197381 -1.047708 -3.831618 26 51 83
-1.182413 -1.047708 -3.831618 29 54 86
-1.170732 -1.050657 -3.842402 11 34 67
-1.134328 -1.044776 -3.820895 64 66 57
-1.116279 -1.041860 -3.810233 91 70 40
-1.091244 -1.032258 -3.775115 97 76 46
-1.074517 -1.030359 -3.768169 101 80 50
-1.057851 -1.028466 -3.761249 100 79 49
-1.043159 -1.028466 -3.761249 104 82 59
-1.029412 -1.029412 -3.764706 104 82 59
-1.014706 -1.029412 -3.764706 98 77 51
-1.002765 -1.032258 -3.775115 97 76 50
-0.886544 -0.985048 -3.602463 93 71 48
-0.861111 -0.972222 -3.555556 93 71 48
-0.837768 -0.961373 -3.515880 97 75 52
-0.821215 -0.958084 -3.503850 95 73 50
-0.806149 -0.956447 -3.497865 94 73 45
-0.786441 -0.949153 -3.471186 90 69 41
-0.766387 -0.941176 -3.442017 80 66 40
-0.751048 -0.938810 -3.433361 79 65 39
-0.735786 -0.936455 -3.424749 80 66 40
-0.662162 -0.945946 -3.459460 62 51 29
-0.647555 -0.944351 -3.453626 60 46 27
-0.634064 -0.944351 -3.453626 57 43 24
-0.620573 -0.944351 -3.453626 53 42 22
-0.543947 -0.928690 -3.396352 42 39 21
-0.525883 -0.920296 -3.365653 40 39 22
-0.512736 -0.920296 -3.365653 35 34 15
-0.502064 -0.924855 -3.382329 33 32 13
-0.491694 -0.930233 -3.401993 31 29 17
-0.478405 -0.930233 -3.401993 30 28 16
-0.462046 -0.924092 -3.379538 23 25 14
-0.447737 -0.921811 -3.371193 20 22 11
-0.434568 -0.921811 -3.371193 17 23 13
-0.336232 -0.811594 -2.968116 42 39 23
-0.324638 -0.811594 -2.968116 36 33 17
-0.313043 -0.811594 -2.968116 31 33 24
-0.301449 -0.811594 -2.968116 21 36 42
0.115246 -0.672269 -2.458583 177 189 185
0.124551 -0.670659 -2.452695 183 195 191
0.133413 -0.667064 -2.439547 186 195 184
0.142602 -0.665478 -2.433749 186 195 184
0.151839 -0.664294 -2.429419 186 195 184
0.161616 -0.665478 -2.433749 183 192 181
0.315315 -0.630631 -2.306306 198 215 209
0.324324 -0.630631 -2.306306 197 215 209
0.333333 -0.630631 -2.306306 197 215 209
0.342342 -0.630631 -2.306306 203 212 209
0.368576 -0.661548 -2.419374 203 212 209
0.411215 -0.654206 -2.392523 203 212 209
0.420070 -0.653442 -2.389732 203 212 209
0.432687 -0.658436 -2.407995 202 211 208
0.442093 -0.658436 -2.407995 203 212 209
0.448598 -0.654206 -2.392523 202 211 208
0.456345 -0.651921 -2.384168 202 211 208
0.465658 -0.651921 -2.384168 202 211 208
0.474971 -0.651921 -2.384168 203 212 209
0.525346 -0.645161 -2.359447 200 209 206
0.522523 -0.630631 -2.306306 188 197 194
0.531532 -0.630631 -2.306306 200 209 206
0.540541 -0.630631 -2.306306 175 184 181
0.549550 -0.630631 -2.306306 183 192 189
0.558559 -0.630631 -2.306306 197 206 203
0.567568 -0.630631 -2.306306 171 180 177
0.576577 -0.630631 -2.306306 185 194 191
0.585586 -0.630631 -2.306306 194 203 200
0.594595 -0.630631 -2.306306 185 194 191
0.603604 -0.630631 -2.306306 200 209 206
0.612613 -0.630631 -2.306306 197 209 205
0.621622 -0.630631 -2.306306 197 209 205
0.680449 -0.661548 -2.419374 169 172 154
0.683441 -0.655354 -2.396723 126 129 111
0.680851 -0.644048 -2.355377 135 132 114
0.722022 -0.673887 -2.464501 132 135 119
0.735632 -0.677556 -2.477919 131 134 118
0.745763 -0.677966 -2.479419 132 134 121
0.754991 -0.677556 -2.477919 134 136 123
0.763285 -0.676328 -2.473430 127 128 113
0.770156 -0.673887 -2.464501 126 127 112
0.780253 -0.674293 -2.465984 81 79 56
0.789886 -0.674293 -2.465984 60 58 35
0.873862 -0.728218 -2.663199 68 52 34
0.884265 -0.728218 -2.663199 57 41 23
0.893506 -0.727273 -2.659740 61 46 23
0.838554 -0.674699 -2.467470 63 48 25
0.850242 -0.676328 -2.473430 50 36 17
0.861464 -0.677556 -2.477919 44 30 11
0.873257 -0.679200 -2.483930 40 30 16
0.949153 -0.730117 -2.670143 42 32 18
0.961463 -0.731548 -2.675375 44 35 14
0.971914 -0.731548 -2.675375 47 38 17
0.981723 -0.731071 -2.673629 60 44 26
0.988939 -0.728692 -2.664932 68 52 34
0.996755 -0.726801 -2.658014 77 61 43
1.003881 -0.724450 -2.649418 91 69 50
1.013575 -0.723982 -2.647705 100 78 59
1.027904 -0.726801 -2.658014 105 83 60
1.052769 -0.729642 -2.668404 109 89 56
1.062500 -0.729167 -2.666667 110 90 57
1.072219 -0.728692 -2.664932 77 56 26
1.083333 -0.729167 -2.666667 55 48 31
2.187500 -1.458333 -5.333333 65 58 41
2.214099 -1.462141 -5.347259 69 66 48
2.234987 -1.462141 -5.347259 75 72 54
2.270696 -1.471748 -5.382391 74 71 55
2.306878 -1.481481 -5.417989 74 71 55
2.328042 -1.481481 -5.417989 73 70 54
2.339921 -1.475626 -5.396574 73 70 54
2.361001 -1.475626 -5.396574 66 69 49
2.369594 -1.467890 -5.368283 42 45 25
2.387434 -1.465969 -5.361257 22 25 5
2.408377 -1.465969 -5.361257 13 24 10
3.124579 -1.885522 -6.895623 16 27 13
3.094215 -1.851240 -6.770248 23 25 14
3.120661 -1.851240 -6.770248 24 26 15
7.625000 -4.375000 -16.000000 30 33 15
3.911765 -2.058824 -7.529412 28 30 19
3.741710 -1.954625 -7.148342 24 26 15
3.648649 -1.891892 -6.918919 23 25 14
3.657143 -1.882353 -6.884034 23 25 14
4.585774 -2.343096 -8.569037 24 26 15
4.619247 -2.343096 -8.569037 23 25 14
4.643006 -2.338205 -8.551148 24 26 15
3.803056 -1.901528 -6.954160 24 26 15
3.810811 -1.891892 -6.918919 25 27 16
3.837838 -1.891892 -6.918919 27 29 18
-1.228464 -1.063670 -3.835206 28 36 40
-1.200000 -1.051852 -3.792593 51 59 63
-1.182994 -1.049908 -3.785582 52 72 97
-1.173630 -1.054782 -3.803157 34 54 79
-1.160930 -1.056744 -3.810233 22 43 72
-1.131163 -1.056744 -3.810233 84 71 49
-1.105991 -1.047005 -3.775115 93 75 44
-1.089236 -1.045078 -3.768169 95 77 46
-1.072544 -1.043159 -3.761249 101 79 49
-1.057851 -1.043159 -3.761249 103 81 51
-1.043159 -1.043159 -3.761249 101 79 56
-1.029412 -1.044118 -3.764706 99 77 54
-1.014706 -1.044118 -3.764706 99 78 52
-1.006475 -1.050879 -3.789084 100 79 53
-0.915103 -1.015192 -3.660411 99 77 54
-0.878814 -0.990410 -3.571055 102 80 59
-0.861111 -0.986111 -3.555556 101 79 58
-0.837768 -0.975107 -3.515880 99 77 54
-0.821215 -0.971771 -3.503850 100 78 55
-0.806149 -0.970111 -3.497865 99 77 56
-0.791134 -0.968457 -3.491901 97 75 54
-0.770921 -0.960271 -3.462384 91 72 50
-0.756757 -0.959459 -3.459460 89 70 48
-0.530680 -0.941957 -3.396352 82 68 38
-0.513158 -0.934211 -3.368421 83 65 34
-0.504146 -0.941957 -3.396352 85 67 36
0.105769 -0.682692 -2.461539 113 131 125
0.115315 -0.682282 -2.460060 186 194 188
0.124626 -0.680647 -2.454164 184 192 186
0.134132 -0.680239 -2.452695 182 190 187
0.142942 -0.676593 -2.439547 183 191 188
0.152109 -0.674985 -2.433749 184 192 189
0.162485 -0.678614 -2.446834 183 191 188
0.326139 -0.681055 -2.455636 205 213 210
0.315315 -0.639640 -2.306306 205 213 210
0.324324 -0.639640 -2.306306 200 214 209
0.333333 -0.639640 -2.306306 201 215 210
0.342342 -0.639640 -2.306306 204 212 209
0.411215 -0.663551 -2.392523 204 212 209
0.420070 -0.662777 -2.389732 203 211 208
0.432941 -0.668235 -2.409412 203 211 208
0.442353 -0.668235 -2.409412 203 211 208
0.448860 -0.663939 -2.393922 203 211 208
0.456345 -0.661234 -2.384168 203 211 208
0.463231 -0.657788 -2.371743 203 211 208
0.472496 -0.657788 -2.371743 203 211 208
0.511628 -0.660465 -2.381395 199 211 207
0.516129 -0.654378 -2.359447 201 209 206
0.519658 -0.647293 -2.333903 184 192 189
0.524887 -0.642534 -2.316742 190 198 195
0.531532 -0.639640 -2.306306 191 199 196
0.540541 -0.639640 -2.306306 199 207 204
0.549550 -0.639640 -2.306306 183 191 188
0.558559 -0.639640 -2.306306 181 189 186
0.567568 -0.639640 -2.306306 200 208 205
0.576577 -0.639640 -2.306306 177 185 182
0.585586 -0.639640 -2.306306 180 188 185
0.594595 -0.639640 -2.306306 198 206 203
0.603604 -0.639640 -2.306306 200 208 205
0.612613 -0.639640 -2.306306 200 208 205
0.705882 -0.696078 -2.509804 133 136 120
0.715248 -0.695652 -2.508267 129 132 116
0.723274 -0.693952 -2.502138 135 133 119
0.729483 -0.690578 -2.489969 134 137 121
0.738761 -0.690158 -2.488457 135 138 122
0.747119 -0.688902 -2.483930 138 136 122
0.754991 -0.687235 -2.477919 138 136 122
0.760529 -0.683514 -2.464501 134 132 118
0.770156 -0.683514 -2.464501 118 116 102
0.779315 -0.683103 -2.463019 74 65 44
0.789886 -0.683925 -2.465984 60 51 30
0.903480 -0.745896 -2.689429 38 28 14
0.906840 -0.740065 -2.668404 39 29 15
0.916667 -0.739583 -2.666667 35 31 18
0.926480 -0.739102 -2.664932 37 33 20
0.936890 -0.739102 -2.664932 45 35 21
0.949153 -0.740548 -2.670143 47 37 23
0.960209 -0.741031 -2.671885 56 40 22
0.971279 -0.741514 -2.673629 61 45 27
0.979167 -0.739583 -2.666667 73 58 37
0.987654 -0.738142 -2.661469 83 67 49
0.996755 -0.737184 -2.658014 93 77 59
1.006485 -0.736706 -2.656291 104 82 61
1.014887 -0.735275 -2.651133 108 86 65
1.029240 -0.738142 -2.661469 108 87 61
1.044386 -0.741514 -2.673629 105 84 58
1.054830 -0.741514 -2.673629 105 84 54
1.063885 -0.740548 -2.670143 106 85 55
1.073616 -0.740065 -2.668404 73 51 28
1.086162 -0.741514 -2.673629 40 38 24
2.187500 -1.479167 -5.333333 47 45 31
2.208333 -1.479167 -5.333333 61 57 44
2.220493 -1.473411 -5.312581 69 65 52
2.244156 -1.475325 -5.319480 68 71 53
2.279739 -1.484967 -5.354249 69 72 54
2.318841 -1.496706 -5.396574 68 72 47
2.333771 -1.492773 -5.382391 68 72 47
2.354796 -1.492773 -5.382391 67 70 54
2.369594 -1.488860 -5.368283 66 68 55
2.387434 -1.486911 -5.361257 49 51 38
2.405229 -1.484967 -5.354249 20 24 15
2.416667 -1.479167 -5.333333 21 25 16
2.434330 -1.477243 -5.326398 23 25 16
3.120661 -1.877686 -6.770248 25 27 18
7.562500 -4.437500 -16.000000 30 33 17
7.338346 -4.270677 -15.398497 30 32 19
7.222222 -3.944444 -14.222222 25 27 18
3.881481 -2.103704 -7.585185 25 27 18
3.882353 -2.088235 -7.529412 27 29 20
3.911765 -2.088235 -7.529412 26 28 19
4.732892 -2.507726 -9.041943 23 25 16
4.652719 -2.376569 -8.569037 24 26 17
3.714760 -1.883914 -6.792703 24 26 17
3.722772 -1.874587 -6.759076 26 28 19
3.736842 -1.868421 -6.736842 28 30 21
-1.233055 -1.069638 -3.803157 20 28 25
-1.211450 -1.063712 -3.782087 24 35 47
-1.196676 -1.063712 -3.782087 39 50 62
-1.181902 -1.063712 -3.782087 52 72 85
-1.173630 -1.069638 -3.803157 39 50 53
-1.164179 -1.074627 -3.820895 46 57 60
-1.149254 -1.074627 -3.820895 85 67 45
-1.131163 -1.071628 -3.810233 87 69 47
-1.104972 -1.060773 -3.771639 94 73 43
-1.088235 -1.058824 -3.764706 97 76 46
-1.073529 -1.058824 -3.764706 101 74 46
-1.057851 -1.057851 -3.761249 104 77 49
-1.043159 -1.057851 -3.761249 99 77 47
-1.030359 -1.059798 -3.768169 95 73 43
-1.021277 -1.065680 -3.789084 96 75 45
-0.894323 -1.006114 -3.577293 101 80 50
-0.876522 -1.001739 -3.561739 99 78 50
-0.861859 -1.000869 -3.558645 102 81 53
-0.842105 -0.993960 -3.534081 99 77 54
-0.821918 -0.986301 -3.506849 99 77 54
-0.806149 -0.983775 -3.497865 99 77 54
-0.791134 -0.982097 -3.491901 96 74 51
-0.776170 -0.980426 -3.485957 95 75 42
0.096212 -0.692724 -2.463019 134 156 153
0.105769 -0.692308 -2.461539 180 189 186
0.115385 -0.692308 -2.461539 183 192 189
0.124925 -0.691892 -2.460060 181 190 187
0.134293 -0.690647 -2.455636 180 189 186
0.143885 -0.690647 -2.455636 179 188 185
0.153477 -0.690647 -2.455636 180 189 186
